  -6.8236400000000001e+00  -6.3415698999999996e+01   8.5608597000000003e+01
  -6.7051100000000003e+00  -6.3686599999999999e+01   8.5782700000000006e+01
  -6.5708500000000001e+00  -6.3987499000000000e+01   8.5942902000000004e+01
  -6.7670700000000004e+00  -6.3106800000000000e+01   8.6001403999999994e+01
  -6.6263500000000004e+00  -6.3500801000000003e+01   8.6172798000000000e+01
  -6.5063800000000001e+00  -6.3859501000000002e+01   8.6301299999999998e+01
  -8.1296999999999997e+00  -6.0537399000000001e+01   8.1518897999999993e+01
  -8.1211900000000004e+00  -6.0300700999999997e+01   8.1980002999999996e+01
  -8.2619100000000003e+00  -6.0166100000000000e+01   8.2695601999999994e+01
  -8.3111899999999999e+00  -6.0357201000000003e+01   8.1277702000000005e+01
  -8.3736800000000002e+00  -6.0166499999999999e+01   8.1743201999999997e+01
  -8.5721200000000000e+00  -6.0045799000000002e+01   8.2349197000000004e+01
  -8.5561299999999996e+00  -6.0118301000000002e+01   8.1031700000000001e+01
  -8.6462199999999996e+00  -6.0012199000000003e+01   8.1506896999999995e+01
  -8.8683099999999992e+00  -5.9972000000000001e+01   8.2109702999999996e+01
  -8.5327599999999997e+00  -6.0270401000000000e+01   8.0740500999999995e+01
  -8.2868499999999994e+00  -6.0554501000000002e+01   8.0996803000000000e+01
  -8.1280400000000004e+00  -6.0768101000000001e+01   8.1257698000000005e+01
  -8.0681300000000000e+00  -6.0967799999999997e+01   8.1556702000000001e+01
  -8.0024599999999992e+00  -6.0734901000000001e+01   8.1796097000000003e+01
  -7.8648100000000003e+00  -6.0501598000000001e+01   8.2218902999999997e+01
  -7.8244600000000002e+00  -6.0386699999999998e+01   8.2809997999999993e+01
  -9.4343100000000000e+00  -5.9791302000000002e+01   8.0372298999999998e+01
  -9.1388999999999996e+00  -5.9699599999999997e+01   8.0345802000000006e+01
  -9.4443099999999998e+00  -5.9539901999999998e+01   8.0705200000000005e+01
  -9.1622400000000006e+00  -5.9552799000000000e+01   8.0627898999999999e+01
  -1.0337000000000000e+01  -5.9866402000000001e+01   8.1767097000000007e+01
  -1.0601900000000001e+01  -6.0086300000000001e+01   8.2795096999999998e+01
  -1.0092800000000000e+01  -5.9822701000000002e+01   8.2002403000000001e+01
  -9.6480700000000006e+00  -5.9595500999999999e+01   8.1309196000000000e+01
  -1.0311100000000000e+01  -6.0080502000000003e+01   8.3060203999999999e+01
  -9.8370700000000006e+00  -5.9874901000000001e+01   8.2282798999999997e+01
  -9.4366599999999998e+00  -5.9686698999999997e+01   8.1592003000000005e+01
  -6.2719300000000002e+00  -6.4630302000000000e+01   8.6270103000000006e+01
  -6.4267899999999996e+00  -6.4313004000000006e+01   8.6117699000000002e+01
  -6.4033100000000003e+00  -6.4202797000000004e+01   8.6429298000000003e+01
  -1.0604300000000000e+01  -6.0033400999999998e+01   8.1682297000000005e+01
  -1.0890499999999999e+01  -6.0275798999999999e+01   8.1711501999999996e+01
  -1.1921700000000000e+01  -6.1727600000000002e+01   8.1950203000000002e+01
  -1.2167800000000000e+01  -6.1787601000000002e+01   8.2253304000000000e+01
  -8.0138999999999996e+00  -6.1852001000000001e+01   8.5820701999999997e+01
  -8.1662999999999997e+00  -6.1800998999999997e+01   8.6201796999999999e+01
  -8.4651200000000006e+00  -6.1784199000000001e+01   8.6661201000000005e+01
  -8.4975299999999994e+00  -6.1420898000000001e+01   8.5551697000000004e+01
  -8.6724399999999999e+00  -6.1424500000000002e+01   8.5952102999999994e+01
  -8.9548799999999993e+00  -6.1478198999999996e+01   8.6451499999999996e+01
  -8.9813600000000005e+00  -6.0987999000000002e+01   8.5261100999999996e+01
  -9.1818200000000001e+00  -6.1049702000000003e+01   8.5679801999999995e+01
  -9.4218299999999999e+00  -6.1163798999999997e+01   8.6181800999999993e+01
  -8.3736099999999993e+00  -6.0376700999999997e+01   8.3490600999999998e+01
  -8.4836299999999998e+00  -6.0790999999999997e+01   8.4272598000000002e+01
  -8.7663700000000002e+00  -6.0144798000000002e+01   8.3277198999999996e+01
  -8.8846799999999995e+00  -6.0405498999999999e+01   8.3981399999999994e+01
  -9.2208600000000001e+00  -6.0210400000000000e+01   8.3815804000000000e+01
  -8.1024100000000008e+00  -6.0881999999999998e+01   8.4162598000000003e+01
  -7.9759300000000000e+00  -6.0539397999999998e+01   8.3516700999999998e+01
  -7.8665700000000003e+00  -6.0928299000000003e+01   8.4124802000000003e+01
  -7.6728399999999999e+00  -6.0788100999999997e+01   8.3721496999999999e+01
  -7.1744100000000000e+00  -6.2471297999999997e+01   8.6089698999999996e+01
  -7.3031100000000002e+00  -6.2424301000000000e+01   8.6532500999999996e+01
  -7.6227299999999998e+00  -6.2412799999999997e+01   8.7098900000000000e+01
  -7.5548700000000002e+00  -6.2195000000000000e+01   8.6002403000000001e+01
  -7.6986100000000004e+00  -6.2129002000000000e+01   8.6400597000000005e+01
  -8.0317000000000007e+00  -6.2099201000000001e+01   8.6907798999999997e+01
  -9.8537900000000000e+00  -6.0442799000000001e+01   8.4803595999999999e+01
  -1.0122600000000000e+01  -6.0532299000000002e+01   8.5200400999999999e+01
  -1.0419499999999999e+01  -6.0657600000000002e+01   8.5691497999999996e+01
  -1.0168200000000001e+01  -6.0362400000000001e+01   8.4615402000000003e+01
  -1.0460300000000000e+01  -6.0427199999999999e+01   8.4934601000000001e+01
  -1.0808000000000000e+01  -6.0517398999999997e+01   8.5343497999999997e+01
  -1.0340100000000000e+01  -6.0338402000000002e+01   8.4442299000000006e+01
  -1.0603500000000000e+01  -6.0361598999999998e+01   8.4555901000000006e+01
  -1.1065899999999999e+01  -6.0438701999999999e+01   8.4780700999999993e+01
  -1.1487600000000000e+01  -6.0523499000000001e+01   8.4472297999999995e+01
  -1.0732400000000000e+01  -6.0265999000000001e+01   8.3869003000000006e+01
  -1.1066000000000001e+01  -6.0323799000000001e+01   8.3620300000000000e+01
  -9.4448699999999999e+00  -6.0651100000000000e+01   8.5013099999999994e+01
  -9.6799400000000002e+00  -6.0742500000000000e+01   8.5437102999999993e+01
  -9.9425799999999995e+00  -6.0885899000000002e+01   8.5963097000000005e+01
  -8.9996700000000001e+00  -6.0049301000000000e+01   8.2990700000000004e+01
  -9.4795499999999997e+00  -6.0139499999999998e+01   8.3617797999999993e+01
  -9.2752099999999995e+00  -6.0021701999999998e+01   8.2777602999999999e+01
  -9.7437500000000004e+00  -6.0130699000000000e+01   8.3446701000000004e+01
  -8.1960700000000006e+00  -6.2503300000000003e+01   8.7758499000000000e+01
  -8.6376899999999992e+00  -6.2149700000000003e+01   8.7515602000000001e+01
  -9.0433199999999996e+00  -6.1784697999999999e+01   8.7161597999999998e+01
  -1.1587300000000001e+01  -6.0625000000000000e+01   8.5645401000000007e+01
  -1.1217800000000000e+01  -6.0689098000000001e+01   8.6037200999999996e+01
  -1.0771100000000001e+01  -6.0866900999999999e+01   8.6395897000000005e+01
  -1.0248900000000001e+01  -6.1129199999999997e+01   8.6693900999999997e+01
  -9.6409699999999994e+00  -6.1409401000000003e+01   8.6861198000000002e+01
  -1.1917500000000000e+01  -6.0691299000000001e+01   8.5311797999999996e+01
  -6.5942900000000000e+00  -6.3824401999999999e+01   8.6838202999999993e+01
  -6.5086300000000001e+00  -6.4170402999999993e+01   8.6896500000000003e+01
  -8.8577800000000000e+00  -5.9800998999999997e+01   8.0787398999999994e+01
  -8.8334899999999994e+00  -5.9924399999999999e+01   8.0495200999999994e+01
  -8.9483200000000007e+00  -5.9778098999999997e+01   8.1251403999999994e+01
  -9.1647700000000007e+00  -5.9837398999999998e+01   8.1851996999999997e+01
  -9.2417300000000004e+00  -5.9558399000000001e+01   8.1040199000000001e+01
  -1.2320499999999999e+01  -6.1763199000000000e+01   8.2367401000000001e+01
  -1.2263299999999999e+00  -7.5775199999999998e+01   6.8908896999999996e+01
  -1.2106399999999999e+00  -7.5797400999999994e+01   6.9045997999999997e+01
  -7.4907699999999999e-01  -7.6172698999999994e+01   6.9084297000000007e+01
  -7.4683600000000006e-01  -7.6191901999999999e+01   6.9211997999999994e+01
  -3.5186600000000001e-01  -7.6471901000000003e+01   6.9279601999999997e+01
  -3.6266300000000001e-01  -7.6488701000000006e+01   6.9402000000000001e+01
  -1.3393900000000000e-01  -7.6635695999999996e+01   6.9558998000000003e+01
  -1.2394900000000000e-01  -7.6626700999999997e+01   6.9436897000000002e+01
  -1.2537700000000001e+00  -7.5784499999999994e+01   6.9137703000000002e+01
  -1.2966899999999999e+00  -7.5773300000000006e+01   6.9219397999999998e+01
  -7.9652000000000001e-01  -7.6154899999999998e+01   6.9285399999999996e+01
  -8.6017699999999997e-01  -7.6104697999999999e+01   6.9347397000000001e+01
  -4.0951700000000002e-01  -7.6437500000000000e+01   6.9455596999999997e+01
  -4.7418600000000000e-01  -7.6366095999999999e+01   6.9496596999999994e+01
  -1.6784500000000000e+00  -7.5338302999999996e+01   6.8797302000000002e+01
  -2.0911700000000000e+00  -7.4896698000000001e+01   6.8728499999999997e+01
  -1.6592499999999999e+00  -7.5374099999999999e+01   6.8944098999999994e+01
  -2.0583499999999999e+00  -7.4961799999999997e+01   6.8883301000000003e+01
  -2.1014599999999999e+00  -7.4981300000000005e+01   6.8991095999999999e+01
  -2.1712699999999998e+00  -7.4963997000000006e+01   6.9125197999999997e+01
  -1.6964300000000001e+00  -7.5391700999999998e+01   6.9048698000000002e+01
  -1.7200000000000000e+00  -7.5423798000000005e+01   6.9152495999999999e+01
  -2.8160799999999999e+00  -7.4056702000000001e+01   6.8656998000000002e+01
  -2.6752199999999999e+00  -7.4231498999999999e+01   6.8844299000000007e+01
  -2.4704400000000000e+00  -7.4474097999999998e+01   6.8678000999999995e+01
  -2.3903200000000000e+00  -7.4601601000000002e+01   6.8847999999999999e+01
  -1.6212499999999999e-01  -7.6574996999999996e+01   6.9595802000000006e+01
  -2.0197300000000001e-01  -7.6494101999999998e+01   6.9614600999999993e+01
  -3.2706700000000000e-01  -7.5977599999999995e+01   6.8712897999999996e+01
  -2.5152600000000003e-01  -7.5800597999999994e+01   6.8725800000000007e+01
  -6.0209199999999996e-01  -7.5843299999999999e+01   6.8705803000000003e+01
  -4.7421700000000000e-01  -7.5711601000000002e+01   6.8725800000000007e+01
  -6.6663899999999998e-01  -7.5610900999999998e+01   6.8746498000000003e+01
  -8.2931699999999997e-01  -7.5459198000000001e+01   6.8793403999999995e+01
  -8.5479099999999997e-01  -7.5665702999999993e+01   6.8733902000000000e+01
  -1.0707300000000000e+00  -7.5455596999999997e+01   6.8768501000000001e+01
  -9.9753999999999998e-01  -7.5258499000000000e+01   6.8861900000000006e+01
  -1.2879000000000000e+00  -7.5172996999999995e+01   6.8810699000000000e+01
  -1.1770400000000001e+00  -7.5018303000000003e+01   6.8923302000000007e+01
  -1.5121199999999999e+00  -7.4865195999999997e+01   6.8862099000000001e+01
  -1.3719699999999999e+00  -7.4778701999999996e+01   6.8954102000000006e+01
  -1.7044900000000001e+00  -7.4581901999999999e+01   6.8919701000000003e+01
  -1.5507899999999999e+00  -7.4559898000000004e+01   6.8979202000000001e+01
  -1.6855800000000001e+00  -7.4367996000000005e+01   6.9025199999999998e+01
  -1.7985300000000000e+00  -7.4171997000000005e+01   6.9076499999999996e+01
  -1.8003899999999999e+00  -7.4385399000000007e+01   6.8974800000000002e+01
  -1.8735599999999999e+00  -7.4205596999999997e+01   6.9019897000000000e+01
  -1.9365200000000000e+00  -7.4306800999999993e+01   6.8943297999999999e+01
  -1.9322500000000000e+00  -7.4196899000000002e+01   6.8979400999999996e+01
  -2.1257600000000001e+00  -7.4050101999999995e+01   6.8963798999999995e+01
  -2.0444900000000001e+00  -7.3984200000000001e+01   6.8999602999999993e+01
  -2.3498600000000001e+00  -7.3723602000000000e+01   6.9012100000000004e+01
  -2.2219799999999998e+00  -7.3668899999999994e+01   6.9049103000000002e+01
  -2.5963599999999998e+00  -7.3397498999999996e+01   6.9075699000000000e+01
  -2.4353199999999999e+00  -7.3336799999999997e+01   6.9129600999999994e+01
  -2.8391299999999999e+00  -7.3069603000000001e+01   6.9146698000000001e+01
  -2.6579000000000002e+00  -7.2999602999999993e+01   6.9229102999999995e+01
  -3.6355300000000002e+00  -7.1659401000000003e+01   6.9376098999999996e+01
  -3.5117600000000002e+00  -7.1658203000000000e+01   6.9483704000000003e+01
  -3.7656900000000002e+00  -7.1530197000000001e+01   6.9404197999999994e+01
  -3.5021800000000001e+00  -7.1528000000000006e+01   6.9558800000000005e+01
  -3.8702500000000000e+00  -7.1441497999999996e+01   6.9413696000000002e+01
  -3.3357800000000002e+00  -7.1043998999999999e+01   6.9624099999999999e+01
  -3.0569000000000002e+00  -7.2720900999999998e+01   6.9217597999999995e+01
  -2.8720900000000000e+00  -7.2649901999999997e+01   6.9332297999999994e+01
  -3.2612399999999999e+00  -7.2343902999999997e+01   6.9282500999999996e+01
  -3.0935000000000001e+00  -7.2279297000000000e+01   6.9419501999999994e+01
  -3.9807600000000001e+00  -7.1469498000000002e+01   6.9421204000000003e+01
  -3.4623100000000000e+00  -7.1169601000000000e+01   6.9797202999999996e+01
  -4.0248499999999998e+00  -7.1619202000000001e+01   6.9350800000000007e+01
  -3.5597699999999999e+00  -7.1403899999999993e+01   6.9838699000000005e+01
  -3.4627200000000000e+00  -7.1955001999999993e+01   6.9336196999999999e+01
  -3.3282500000000002e+00  -7.1906197000000006e+01   6.9472899999999996e+01
  -3.9817900000000002e+00  -7.1958900000000000e+01   6.9154701000000003e+01
  -3.6885900000000000e+00  -7.1970100000000002e+01   6.9521202000000002e+01
  -3.8341900000000000e+00  -7.2372200000000007e+01   6.8957901000000007e+01
  -3.6061500000000000e+00  -7.2443199000000007e+01   6.9279601999999997e+01
  -2.3685700000000001e+00  -6.9752403000000001e+01   6.9980598000000001e+01
  -1.8423499999999999e+00  -6.9434700000000007e+01   7.0171798999999993e+01
  -1.5325800000000001e+00  -6.9080901999999995e+01   7.0160797000000002e+01
  -2.3483299999999998e+00  -6.9914803000000006e+01   7.0334900000000005e+01
  -1.7791800000000000e+00  -6.9477798000000007e+01   7.0415099999999995e+01
  -1.4045500000000000e+00  -6.9036201000000005e+01   7.0283501000000001e+01
  -2.3771399999999998e+00  -6.9771895999999998e+01   7.0651398000000000e+01
  -1.6832800000000001e+00  -6.9208602999999997e+01   7.0609001000000006e+01
  -1.2914900000000000e+00  -6.8818199000000007e+01   7.0412200999999996e+01
  -2.9677799999999999e+00  -7.0305199000000002e+01   7.0821098000000006e+01
  -3.3811599999999999e+00  -7.1012801999999994e+01   7.0844299000000007e+01
  -3.0359300000000000e+00  -7.0658698999999999e+01   7.0292702000000006e+01
  -3.3968900000000000e+00  -7.0997200000000007e+01   7.0392899000000000e+01
  -3.7309500000000000e+00  -7.1460999000000001e+01   7.0397300999999999e+01
  -3.6445500000000002e+00  -7.1599700999999996e+01   7.0015701000000007e+01
  -3.8097599999999998e+00  -7.1791602999999995e+01   7.0085701000000000e+01
  -2.8922599999999998e+00  -7.2167900000000003e+01   6.9747001999999995e+01
  -2.7437900000000002e+00  -7.2070601999999994e+01   6.9813300999999996e+01
  -2.5573700000000001e+00  -7.1897002999999998e+01   6.9748001000000002e+01
  -3.1386099999999999e+00  -7.1729697999999999e+01   6.9738701000000006e+01
  -2.9622899999999999e+00  -7.1586799999999997e+01   6.9755302000000000e+01
  -2.7590699999999999e+00  -7.1301497999999995e+01   6.9627296000000001e+01
  -3.0794100000000002e+00  -7.0820198000000005e+01   6.9513396999999998e+01
  -2.8972099999999998e+00  -7.0719002000000003e+01   6.9436096000000006e+01
  -3.6188799999999999e+00  -7.2795501999999999e+01   6.8833602999999997e+01
  -3.4167100000000001e+00  -7.2904999000000004e+01   6.9130095999999995e+01
  -3.3647499999999999e+00  -7.3223701000000005e+01   6.8760695999999996e+01
  -3.1479300000000001e+00  -7.3420699999999997e+01   6.9052299000000005e+01
  -3.1039099999999999e+00  -7.3640900000000002e+01   6.8692595999999995e+01
  -2.9148600000000000e+00  -7.3848900000000000e+01   6.8911902999999995e+01
  -3.5499700000000001e+00  -7.2541199000000006e+01   6.9545799000000002e+01
  -3.5966399999999998e+00  -7.2557297000000005e+01   6.9817497000000003e+01
  -3.3633600000000001e+00  -7.2978104000000002e+01   6.9399497999999994e+01
  -3.3786700000000001e+00  -7.2992301999999995e+01   6.9671402000000000e+01
  -3.1617000000000002e+00  -7.3394897000000000e+01   6.9310303000000005e+01
  -3.1679200000000001e+00  -7.3402396999999993e+01   6.9542900000000003e+01
  -2.9853800000000001e+00  -7.3743599000000003e+01   6.9429100000000005e+01
  -2.7833800000000002e+00  -7.4103202999999993e+01   6.9336196999999999e+01
  -2.9360800000000000e+00  -7.3810401999999996e+01   6.9193297999999999e+01
  -3.7726700000000002e+00  -7.2145698999999993e+01   6.9957001000000005e+01
  -3.6726399999999999e+00  -7.2096901000000003e+01   6.9747298999999998e+01
  -2.7204999999999999e+00  -7.4169799999999995e+01   6.9072601000000006e+01
  -2.5168400000000002e+00  -7.4517501999999993e+01   6.9225898999999998e+01
  -2.4759799999999998e+00  -7.4535599000000005e+01   6.8986701999999994e+01
  -2.4691700000000001e+00  -7.2896895999999998e+01   6.9488799999999998e+01
  -2.3497300000000001e+00  -7.2812302000000003e+01   6.9566802999999993e+01
  -2.1957900000000001e+00  -7.2711899000000003e+01   6.9556601999999998e+01
  -2.6721400000000002e+00  -7.2534797999999995e+01   6.9648803999999998e+01
  -2.5424000000000002e+00  -7.2448997000000006e+01   6.9728499999999997e+01
  -2.3765499999999999e+00  -7.2340202000000005e+01   6.9703400000000002e+01
  -3.2481700000000000e+00  -7.1846999999999994e+01   6.9620002999999997e+01
  -2.9894500000000002e+00  -7.2226401999999993e+01   6.9593399000000005e+01
  -2.0343800000000001e-01  -7.5595496999999995e+01   6.8785797000000002e+01
  -1.8748899999999999e-01  -7.5376503000000000e+01   6.8839896999999993e+01
  -4.0091199999999999e-01  -7.5506302000000005e+01   6.8792098999999993e+01
  -3.7680300000000000e-01  -7.5286797000000007e+01   6.8851898000000006e+01
  -5.8871300000000004e-01  -7.5389197999999993e+01   6.8812897000000007e+01
  -5.6164400000000003e-01  -7.5178100999999998e+01   6.8876296999999994e+01
  -7.5870499999999996e-01  -7.5250197999999997e+01   6.8856796000000003e+01
  -7.0317099999999999e-01  -7.5105903999999995e+01   6.8899901999999997e+01
  -1.0772200000000001e+00  -7.4892302999999998e+01   6.8991898000000006e+01
  -9.5416999999999996e-01  -7.4817702999999995e+01   6.8992797999999993e+01
  -1.2507699999999999e+00  -7.4697197000000003e+01   6.9013496000000004e+01
  -1.1267499999999999e+00  -7.4621398999999997e+01   6.9013099999999994e+01
  -1.4181200000000000e+00  -7.4503403000000006e+01   6.9025497000000001e+01
  -1.2947700000000000e+00  -7.4415604000000002e+01   6.9028899999999993e+01
  -9.1452400000000000e-01  -7.5080803000000003e+01   6.8928901999999994e+01
  -8.0335000000000001e-01  -7.4978401000000005e+01   6.8948195999999996e+01
  -1.6860200000000001e+00  -7.4110496999999995e+01   6.9115996999999993e+01
  -1.5550500000000000e+00  -7.4027901000000000e+01   6.9113997999999995e+01
  -1.9213100000000001e+00  -7.3935699000000000e+01   6.9118599000000003e+01
  -1.8033699999999999e+00  -7.3875504000000006e+01   6.9169899000000001e+01
  -1.6593800000000001e+00  -7.3797698999999994e+01   6.9175003000000004e+01
  -2.0732699999999999e+00  -7.3638901000000004e+01   6.9188598999999996e+01
  -1.9469500000000000e+00  -7.3578498999999994e+01   6.9253997999999996e+01
  -1.7928400000000000e+00  -7.3498001000000002e+01   6.9264503000000005e+01
  -2.5524000000000000e+00  -7.2949096999999995e+01   6.9357596999999998e+01
  -2.2631100000000002e+00  -7.3278296999999995e+01   6.9320801000000003e+01
  -2.3427199999999999e+00  -7.3308295999999999e+01   6.9219596999999993e+01
  -2.1480899999999998e+00  -7.3654099000000002e+01   6.9111999999999995e+01
  -1.5620700000000001e+00  -7.4312697999999997e+01   6.9063498999999993e+01
  -1.4376199999999999e+00  -7.4223900000000000e+01   6.9063796999999994e+01
  -1.9888300000000001e+00  -7.3961997999999994e+01   6.9054298000000003e+01
  -2.1402199999999998e+00  -7.3205399000000000e+01   6.9394203000000005e+01
  -1.9863599999999999e+00  -7.3113997999999995e+01   6.9397598000000002e+01
  -2.7620499999999999e+00  -7.2593102000000002e+01   6.9494597999999996e+01
  -1.9592499999999999e+00  -7.5230002999999996e+01   6.9323997000000006e+01
  -1.6099900000000000e+00  -7.5455100999999999e+01   6.9471496999999999e+01
  -1.6245200000000000e+00  -7.5549201999999994e+01   6.9292297000000005e+01
  -1.4201500000000000e+00  -7.5722099000000000e+01   6.9415604000000002e+01
  -1.2823199999999999e+00  -7.5805496000000005e+01   6.9326103000000003e+01
  -1.2360599999999999e+00  -7.5858101000000005e+01   6.9412200999999996e+01
  -9.0488700000000000e-01  -7.6085601999999994e+01   6.9438102999999998e+01
  -9.6682500000000005e-01  -7.6059997999999993e+01   6.9499495999999994e+01
  -5.4113199999999995e-01  -7.6325301999999994e+01   6.9573898000000000e+01
  -6.2558599999999998e-01  -7.6273903000000004e+01   6.9604598999999993e+01
  -2.4783900000000000e-01  -7.6445296999999997e+01   6.9676102000000000e+01
  -3.0268099999999998e-01  -7.6389999000000003e+01   6.9684798999999998e+01
  -1.6459999999999999e+00  -6.8101799000000000e+01   7.1377296000000001e+01
  -1.6183500000000000e+00  -6.7103499999999997e+01   7.1422897000000006e+01
  -1.7169600000000000e+00  -6.6321999000000005e+01   7.1223701000000005e+01
  -9.3783000000000005e-01  -6.7877296000000001e+01   7.1747703999999999e+01
  -1.0007100000000000e+00  -6.7017196999999996e+01   7.1769897000000000e+01
  -1.0926300000000000e+00  -6.6217697000000001e+01   7.1580703999999997e+01
  -9.3778899999999998e-01  -6.8710196999999994e+01   7.1960098000000002e+01
  -9.5865699999999998e-01  -6.9476401999999993e+01   7.2222198000000006e+01
  -1.7775300000000001e+00  -6.9014801000000006e+01   7.1667297000000005e+01
  -1.9046200000000000e+00  -6.9904503000000005e+01   7.1833297999999999e+01
  -2.6915600000000000e+00  -7.0331299000000001e+01   7.1333397000000005e+01
  -2.4357799999999998e+00  -6.9593200999999993e+01   7.1268600000000006e+01
  -2.0225200000000001e+00  -6.8958198999999993e+01   7.1039597000000001e+01
  -1.1768600000000000e+00  -6.8094802999999999e+01   6.9888396999999998e+01
  -1.1244000000000001e+00  -6.8478104000000002e+01   7.0049896000000004e+01
  -1.0696000000000001e+00  -6.9244003000000006e+01   7.0321999000000005e+01
  -9.7947899999999999e-01  -6.8045197000000002e+01   7.0189102000000005e+01
  -9.0792399999999995e-01  -6.8341003000000001e+01   7.0272201999999993e+01
  -8.6169899999999999e-01  -6.8968200999999993e+01   7.0415604000000002e+01
  -7.9337700000000000e-01  -6.7878699999999995e+01   7.0324202999999997e+01
  -6.9251700000000005e-01  -6.8064498999999998e+01   7.0311301999999998e+01
  -5.8403300000000002e-01  -6.8520499999999998e+01   7.0372497999999993e+01
  -8.9682200000000001e-01  -7.0521698000000001e+01   7.2381698999999998e+01
  -1.5987700000000000e+00  -7.0720398000000003e+01   7.2075699000000000e+01
  -9.2217400000000005e-01  -7.0080100999999999e+01   7.2353897000000003e+01
  -1.6775899999999999e+00  -7.0368103000000005e+01   7.1994003000000006e+01
  -7.5112199999999996e-01  -7.2358597000000003e+01   7.1756500000000003e+01
  -1.3788700000000000e+00  -7.2470000999999996e+01   7.1549003999999996e+01
  -7.9357699999999998e-01  -7.1906700000000001e+01   7.1952301000000006e+01
  -1.4612600000000000e+00  -7.2012000999999998e+01   7.1692397999999997e+01
  -8.3304999999999996e-01  -7.1444603000000001e+01   7.2156402999999997e+01
  -1.5144400000000000e+00  -7.1537300000000002e+01   7.1873801999999998e+01
  -3.6670100000000000e-01  -7.4240996999999993e+01   7.0814796000000001e+01
  -6.8144000000000005e-01  -7.4132003999999995e+01   7.0774101000000002e+01
  -4.4310600000000000e-01  -7.3742301999999995e+01   7.1084198000000001e+01
  -8.8228399999999996e-01  -7.3727501000000004e+01   7.0965698000000003e+01
  -5.7363900000000001e-01  -7.3266098000000000e+01   7.1326897000000002e+01
  -1.1052000000000000e+00  -7.3269501000000005e+01   7.1197402999999994e+01
  -1.9789200000000000e+00  -7.0951301999999998e+01   7.1654099000000002e+01
  -2.1951399999999999e+00  -7.1430701999999997e+01   7.1164703000000003e+01
  -2.2124700000000002e+00  -7.0722099000000000e+01   7.1464400999999995e+01
  -1.7801499999999999e+00  -7.2632401000000002e+01   7.1288100999999997e+01
  -1.9331000000000000e+00  -7.2982803000000004e+01   7.0933098000000001e+01
  -1.9062600000000001e+00  -7.2111999999999995e+01   7.1336899000000003e+01
  -2.1482700000000001e+00  -7.2216103000000004e+01   7.0977401999999998e+01
  -1.9399500000000001e+00  -7.1563102999999998e+01   7.1487296999999998e+01
  -9.0377099999999999e-01  -7.4317100999999994e+01   7.0610198999999994e+01
  -1.1163700000000001e+00  -7.4565498000000005e+01   7.0303702999999999e+01
  -1.2977399999999999e+00  -7.3771598999999995e+01   7.0829696999999996e+01
  -1.6158100000000000e+00  -7.3792098999999993e+01   7.0629700000000000e+01
  -1.5600200000000000e+00  -7.3216399999999993e+01   7.1088097000000005e+01
  -4.5691500000000002e-01  -7.4609397999999999e+01   7.0566597000000002e+01
  -5.4346600000000000e-01  -7.4933295999999999e+01   7.0272201999999993e+01
  -3.6261199999999999e-01  -7.6280197000000001e+01   6.9558295999999999e+01
  -7.2940799999999995e-01  -7.6162497999999999e+01   6.9516800000000003e+01
  -3.8771099999999997e-01  -7.6119797000000005e+01   6.9418098000000001e+01
  -7.7018100000000000e-01  -7.5998801999999998e+01   6.9415099999999995e+01
  -6.9703099999999996e-01  -7.5794501999999994e+01   6.9425399999999996e+01
  -6.6954800000000003e-01  -7.5519203000000005e+01   6.9581001000000001e+01
  -3.5630600000000001e-01  -7.5918403999999995e+01   6.9411002999999994e+01
  -3.5576500000000000e-01  -7.5654503000000005e+01   6.9575798000000006e+01
  -1.0955500000000000e+00  -7.5959098999999995e+01   6.9476601000000002e+01
  -1.1561100000000000e+00  -7.5794998000000007e+01   6.9445899999999995e+01
  -1.3291200000000001e+00  -7.5330200000000005e+01   6.9553200000000004e+01
  -1.1141399999999999e+00  -7.5193398000000002e+01   6.9607803000000004e+01
  -1.0140600000000000e+00  -7.5608704000000003e+01   6.9478104000000002e+01
  -9.1322999999999999e-01  -7.5346298000000004e+01   6.9591904000000000e+01
  -2.9165199999999998e+00  -7.0228401000000005e+01   6.9791900999999996e+01
  -2.9284200000000000e+00  -7.0543899999999994e+01   7.0109595999999996e+01
  -3.5046400000000002e+00  -7.2214896999999993e+01   7.0447097999999997e+01
  -3.6285599999999998e+00  -7.2412696999999994e+01   7.0155197000000001e+01
  -3.5971299999999999e+00  -7.1697997999999998e+01   7.0616798000000003e+01
  -3.7928600000000001e+00  -7.1942802000000000e+01   7.0294196999999997e+01
  -2.6571500000000001e+00  -7.0993797000000001e+01   7.1125197999999997e+01
  -2.4599600000000001e+00  -7.1643096999999997e+01   7.0849898999999994e+01
  -3.1221999999999999e+00  -7.1389296999999999e+01   7.0857498000000007e+01
  -2.7507400000000000e+00  -7.1862801000000005e+01   7.0691901999999999e+01
  -3.1736300000000002e+00  -7.2019401999999999e+01   7.0604896999999994e+01
  -2.6215999999999999e+00  -6.8914101000000002e+01   6.9100600999999997e+01
  -2.1514899999999999e+00  -6.9129600999999994e+01   6.9370498999999995e+01
  -1.6156699999999999e+00  -6.9606300000000005e+01   6.9762603999999996e+01
  -2.5722000000000000e+00  -6.9440498000000005e+01   6.9536102000000000e+01
  -2.0262799999999999e+00  -6.9410797000000002e+01   6.9778198000000003e+01
  -1.4140100000000000e+00  -6.8329597000000007e+01   6.9632698000000005e+01
  -1.4784100000000000e+00  -6.8640701000000007e+01   6.9856003000000001e+01
  -1.5023299999999999e+00  -6.8944298000000003e+01   6.9755797999999999e+01
  -1.7138700000000000e+00  -6.9123801999999998e+01   6.9888701999999995e+01
  -3.2153700000000001e+00  -7.2771400000000000e+01   7.0245697000000007e+01
  -2.9088599999999998e+00  -7.3353202999999993e+01   7.0035004000000001e+01
  -3.3693100000000000e+00  -7.2910399999999996e+01   6.9982101000000000e+01
  -3.1022500000000002e+00  -7.3406799000000007e+01   6.9806999000000005e+01
  -2.6183999999999998e+00  -7.4326103000000003e+01   6.9532203999999993e+01
  -2.3512200000000001e+00  -7.4435303000000005e+01   6.9702599000000006e+01
  -2.3102900000000002e+00  -7.4797698999999994e+01   6.9415901000000005e+01
  -2.0180300000000000e+00  -7.4950996000000004e+01   6.9576301999999998e+01
  -2.8666299999999998e+00  -7.3868697999999995e+01   6.9658501000000001e+01
  -2.6321599999999998e+00  -7.3906897999999998e+01   6.9853301999999999e+01
  -6.2825900000000001e-01  -7.4999602999999993e+01   6.8907996999999995e+01
  -4.1722300000000001e-01  -7.5068802000000005e+01   6.8855300999999997e+01
  -7.7012700000000001e-01  -7.4796204000000003e+01   6.8922302000000002e+01
  -5.2735799999999999e-01  -7.4757401000000002e+01   6.8832099999999997e+01
  -8.0285499999999999e-01  -7.4414597000000001e+01   6.8856498999999999e+01
  -1.0438900000000000e+00  -7.4055701999999997e+01   6.8903603000000004e+01
  -9.7641299999999998e-01  -7.4539398000000006e+01   6.8943802000000005e+01
  -1.1759800000000000e+00  -7.4279297000000000e+01   6.8974800000000002e+01
  -2.8566799999999999e+00  -7.2621696000000000e+01   7.0389999000000003e+01
  -2.4857300000000002e+00  -7.2480498999999995e+01   7.0499495999999994e+01
  -2.5588799999999998e+00  -7.3247803000000005e+01   7.0165901000000005e+01
  -2.2347800000000002e+00  -7.3135902000000002e+01   7.0305199000000002e+01
  -2.2624200000000001e+00  -7.3835701000000000e+01   6.9963798999999995e+01
  -1.9303399999999999e+00  -7.3755699000000007e+01   7.0095000999999996e+01
  -1.9575100000000001e+00  -7.4386100999999996e+01   6.9794098000000005e+01
  -1.5983300000000000e+00  -7.4329002000000003e+01   6.9890099000000006e+01
  -1.6411100000000001e+00  -7.4902298000000002e+01   6.9660004000000001e+01
  -1.2962199999999999e+00  -7.4840301999999994e+01   6.9719498000000002e+01
  -1.0585199999999999e+00  -7.3239304000000004e+01   6.8977501000000004e+01
  -1.2980100000000001e+00  -7.3292197999999999e+01   6.9026000999999994e+01
  -1.4849900000000000e+00  -7.3365600999999998e+01   6.9093802999999994e+01
  -1.0605899999999999e+00  -7.3662102000000004e+01   6.8921599999999998e+01
  -1.2598000000000000e+00  -7.3652801999999994e+01   6.8972603000000007e+01
  -1.3960900000000001e+00  -7.3670699999999997e+01   6.9032798999999997e+01
  -1.2563400000000000e+00  -7.3914000999999999e+01   6.8966003000000001e+01
  -1.3548700000000000e+00  -7.3847198000000006e+01   6.9009597999999997e+01
  -7.4744500000000003e-01  -7.4052299000000005e+01   6.8834800999999999e+01
  -4.7715400000000002e-01  -7.4058098000000001e+01   6.8822402999999994e+01
  -7.7552600000000005e-01  -7.3670897999999994e+01   6.8871398999999997e+01
  -4.7588700000000000e-01  -7.3705298999999997e+01   6.8859900999999994e+01
  -7.5935900000000001e-01  -7.3237601999999995e+01   6.8932097999999996e+01
  -4.5833900000000000e-01  -7.3281502000000003e+01   6.8923302000000007e+01
  -1.0512200000000000e+00  -7.2135902000000002e+01   6.9199600000000004e+01
  -1.4293499999999999e+00  -7.2294196999999997e+01   6.9242301999999995e+01
  -1.7671100000000000e+00  -7.2479697999999999e+01   6.9320801000000003e+01
  -1.0508400000000000e+00  -7.2703102000000001e+01   6.9072097999999997e+01
  -1.3570100000000000e+00  -7.2807700999999994e+01   6.9119399999999999e+01
  -1.6186400000000001e+00  -7.2936203000000006e+01   6.9194000000000003e+01
  -7.2889300000000001e-01  -7.2679901000000001e+01   6.9031600999999995e+01
  -4.3400400000000000e-01  -7.2722099000000000e+01   6.9027000000000001e+01
  -6.9615800000000005e-01  -7.2084998999999996e+01   6.9167603000000000e+01
  -3.9961700000000000e-01  -7.2121300000000005e+01   6.9163498000000004e+01
  -3.5490600000000000e-01  -7.1624802000000003e+01   6.9314400000000006e+01
  -3.2431700000000002e-01  -7.1429298000000003e+01   6.9442001000000005e+01
  -6.6888499999999995e-01  -7.1589202999999998e+01   6.9326897000000002e+01
  -6.5557600000000005e-01  -7.1368499999999997e+01   6.9467796000000007e+01
  -1.0707199999999999e+00  -7.1639197999999993e+01   6.9348099000000005e+01
  -1.1095400000000000e+00  -7.1225700000000003e+01   6.9485397000000006e+01
  -2.0473499999999998e+00  -7.1372703999999999e+01   6.9377799999999993e+01
  -1.9044200000000000e+00  -7.2042297000000005e+01   6.9431503000000006e+01
  -1.6121300000000001e+00  -7.1217597999999995e+01   6.9375397000000007e+01
  -1.5118600000000000e+00  -7.1818900999999997e+01   6.9363502999999994e+01
  -5.0058199999999997e-01  -7.4404601999999997e+01   6.8807502999999997e+01
  -2.3143900000000001e-01  -7.4854697999999999e+01   6.8813796999999994e+01
  -2.3392800000000000e-01  -7.4496498000000003e+01   6.8824798999999999e+01
  -2.2825100000000001e-01  -7.4122703999999999e+01   6.8861900000000006e+01
  -2.2147800000000001e-01  -7.3768401999999995e+01   6.8906502000000003e+01
  -2.1112900000000001e-01  -7.3349297000000007e+01   6.8973297000000002e+01
  -1.9865600000000000e-01  -7.2790901000000005e+01   6.9077697999999998e+01
  -1.7806400000000000e-01  -7.2194198999999998e+01   6.9199798999999999e+01
  -1.4698200000000000e-01  -7.1710701000000000e+01   6.9312697999999997e+01
  -1.2499700000000000e-01  -7.1522201999999993e+01   6.9396400000000000e+01
  -2.0212800000000000e-01  -7.5143699999999995e+01   6.8835296999999997e+01
  -1.1799200000000001e+00  -6.8328795999999997e+01   7.0081596000000005e+01
  -1.3123400000000001e+00  -6.8117401000000001e+01   6.9683898999999997e+01
  -1.3117500000000000e+00  -6.8437102999999993e+01   6.9918899999999994e+01
  -2.3874499999999999e+00  -6.9306601999999998e+01   6.8801697000000004e+01
  -1.8966200000000000e+00  -6.9538300000000007e+01   6.9043800000000005e+01
  -1.4583500000000000e+00  -7.0175903000000005e+01   6.9460503000000003e+01
  -2.5369400000000000e+00  -6.8870200999999994e+01   6.8835098000000002e+01
  -2.0272700000000001e+00  -6.9141800000000003e+01   6.9114998000000000e+01
  -1.5561700000000001e+00  -6.9888901000000004e+01   6.9562400999999994e+01
  -2.2143199999999998e+00  -7.0303702999999999e+01   6.9075500000000005e+01
  -1.7574399999999999e+00  -7.0342003000000005e+01   6.9198402000000002e+01
  -1.3395300000000001e+00  -7.0635597000000004e+01   6.9463202999999993e+01
  -1.1363200000000000e+00  -7.1118401000000006e+01   6.9603600000000000e+01
  -1.1798500000000001e+00  -7.1090301999999994e+01   6.9687500000000000e+01
  -1.2403400000000000e+00  -7.0680701999999997e+01   6.9653396999999998e+01
  -6.7968200000000001e-01  -6.7575599999999994e+01   7.0088600000000000e+01
  -5.6571899999999997e-01  -6.7124495999999994e+01   6.9591904000000000e+01
  -9.7458000000000000e-01  -6.7745795999999999e+01   7.0358597000000003e+01
  -8.7225399999999997e-01  -6.7310599999999994e+01   7.0116401999999994e+01
  -7.8875399999999996e-01  -6.6800201000000001e+01   6.9684303000000000e+01
  -1.2469600000000001e+00  -6.7716599000000002e+01   7.0542197999999999e+01
  -1.1819599999999999e+00  -6.7132103000000001e+01   7.0380797999999999e+01
  -1.1155500000000000e+00  -6.6558295999999999e+01   7.0039597000000001e+01
  -2.9265999999999998e-01  -6.8519301999999996e+01   7.0298102999999998e+01
  -2.8430299999999997e-01  -6.7729697999999999e+01   6.9920897999999994e+01
  -2.9564099999999999e-01  -6.7109900999999994e+01   6.9449798999999999e+01
  -5.1205900000000004e-01  -6.7757300999999998e+01   7.0039101000000002e+01
  -2.2948000000000000e+00  -7.2342003000000005e+01   7.0684798999999998e+01
  -2.0878199999999998e+00  -7.3055901000000006e+01   7.0565804000000000e+01
  -1.7760600000000000e+00  -7.3760902000000002e+01   7.0344703999999993e+01
  -1.3939800000000000e+00  -7.4410201999999998e+01   7.0075203000000002e+01
  -4.5542199999999999e-01  -7.5313202000000004e+01   6.9900199999999998e+01
  -8.3942899999999998e-01  -7.5128799000000001e+01   6.9884499000000005e+01
  -1.0735100000000000e+00  -7.4946197999999995e+01   6.9801597999999998e+01
  -2.0135800000000001e+00  -7.2612099000000001e+01   6.9449996999999996e+01
  -2.1803400000000002e+00  -7.2213500999999994e+01   6.9573898000000000e+01
  -2.3457300000000001e+00  -7.1633797000000001e+01   6.9550499000000002e+01
  -1.6425700000000001e+00  -7.3430701999999997e+01   6.9192802000000000e+01
  -1.8203499999999999e+00  -7.3032302999999999e+01   6.9309096999999994e+01
  -1.4347900000000000e+00  -7.3932998999999995e+01   6.9062599000000006e+01
  -1.5222700000000000e+00  -7.3725800000000007e+01   6.9114502000000002e+01
  -1.3296100000000000e+00  -7.4093497999999997e+01   6.9016197000000005e+01
  -1.7770200000000000e+00  -6.5658302000000006e+01   7.0568000999999995e+01
  -1.6647300000000000e+00  -6.5250397000000007e+01   6.9930901000000006e+01
  -1.1381600000000001e+00  -6.5532500999999996e+01   7.0827697999999998e+01
  -1.0576900000000000e+00  -6.5105300999999997e+01   6.9933098000000001e+01
  -1.0822000000000001e+00  -6.5970398000000003e+01   6.9571701000000004e+01
  -9.3621900000000002e-01  -6.5496902000000006e+01   6.9174201999999994e+01
  -1.5831999999999999e+00  -6.6418602000000007e+01   7.0631896999999995e+01
  -1.5922000000000001e+00  -6.5784401000000003e+01   7.0073502000000005e+01
  -1.3988300000000000e+00  -6.5299599000000001e+01   6.9534599000000000e+01
  -5.4892500000000000e-01  -6.6469299000000007e+01   6.9109099999999998e+01
  -5.2498999999999996e-01  -6.6052597000000006e+01   6.8881400999999997e+01
  -7.5221300000000002e-01  -6.6230903999999995e+01   6.9249297999999996e+01
  -6.5282799999999996e-01  -6.5785399999999996e+01   6.8949698999999995e+01
  -2.9785499999999998e-01  -6.6523201000000000e+01   6.9052299000000005e+01
  -3.1169100000000000e-01  -6.6009697000000003e+01   6.8835800000000006e+01
  -8.2404999999999995e-01  -6.5057502999999997e+01   6.9347397000000001e+01
  -5.4394799999999999e-01  -6.5260101000000006e+01   6.9015502999999995e+01
  -3.7928600000000001e-01  -6.5591697999999994e+01   6.8839202999999998e+01
  -1.1847199999999999e-01  -7.8012900999999999e+01   7.1329802999999998e+01
  -7.5827000000000006e-02  -7.8085402999999999e+01   7.1465896999999998e+01
  -1.6636699999999999e-01  -7.8085898999999998e+01   7.1490500999999995e+01
  -8.7959999999999997e-02  -7.8164597000000001e+01   7.1669899000000001e+01
  -1.0299100000000000e-01  -7.8235100000000003e+01   7.1871596999999994e+01
  -1.9008800000000001e-01  -7.8158302000000006e+01   7.1673102999999998e+01
  -2.1505500000000000e-01  -7.8221396999999996e+01   7.1863997999999995e+01
  -2.6242799999999999e-01  -7.8047798000000000e+01   7.1495300000000000e+01
  -3.1364399999999998e-01  -7.8107299999999995e+01   7.1690903000000006e+01
  -3.3658700000000003e-01  -7.8148300000000006e+01   7.1877196999999995e+01
  -4.5611299999999999e-01  -7.8023696999999999e+01   7.1754501000000005e+01
  -4.3324299999999999e-01  -7.8003699999999995e+01   7.1953795999999997e+01
  -1.1545099999999999e+00  -7.8035599000000005e+01   7.2608497999999997e+01
  -1.1647900000000000e+00  -7.8119797000000005e+01   7.2717201000000003e+01
  -1.1878800000000000e+00  -7.8146797000000007e+01   7.2851096999999996e+01
  -1.2734099999999999e+00  -7.7979500000000002e+01   7.2628197000000000e+01
  -1.2887100000000000e+00  -7.8034599000000000e+01   7.2724502999999999e+01
  -1.3193999999999999e+00  -7.8046097000000003e+01   7.2842597999999995e+01
  -1.3627600000000000e+00  -7.7936599999999999e+01   7.2667702000000006e+01
  -1.4020500000000000e+00  -7.7935401999999996e+01   7.2747200000000007e+01
  -1.4426500000000000e+00  -7.7927597000000006e+01   7.2853995999999995e+01
  -1.1575500000000001e+00  -7.7880302000000000e+01   7.2543403999999995e+01
  -1.2939700000000001e+00  -7.7850303999999994e+01   7.2568496999999994e+01
  -1.4187600000000000e+00  -7.7823700000000002e+01   7.2649199999999993e+01
  -1.0049300000000001e+00  -7.7764197999999993e+01   7.2568297999999999e+01
  -8.3812399999999998e-01  -7.7874397000000002e+01   7.2569000000000003e+01
  -1.0139100000000001e+00  -7.7975600999999997e+01   7.2566299000000001e+01
  -8.4783600000000003e-01  -7.8081001000000001e+01   7.2557297000000005e+01
  -1.0234500000000000e+00  -7.8127601999999996e+01   7.2624297999999996e+01
  -8.6193799999999998e-01  -7.8224097999999998e+01   7.2611900000000006e+01
  -1.0347299999999999e+00  -7.8217499000000004e+01   7.2730598000000001e+01
  -8.7350099999999997e-01  -7.8311897000000002e+01   7.2718001999999998e+01
  -1.0496900000000000e+00  -7.8252196999999995e+01   7.2861801000000000e+01
  -8.8148099999999996e-01  -7.8351401999999993e+01   7.2846703000000005e+01
  -4.6570000000000000e-01  -7.7963898000000000e+01   7.2285399999999996e+01
  -3.9267000000000002e-01  -7.8031502000000003e+01   7.2085402999999999e+01
  -4.7300500000000001e-01  -7.8178298999999996e+01   7.2267600999999999e+01
  -3.7423299999999998e-01  -7.8178802000000005e+01   7.2064003000000000e+01
  -4.0124100000000001e-01  -7.8325798000000006e+01   7.2324898000000005e+01
  -2.7639999999999998e-01  -7.8274101000000002e+01   7.2072304000000003e+01
  -1.3959800000000000e-01  -7.8306503000000006e+01   7.2073997000000006e+01
  -1.8648100000000001e-01  -7.8380402000000004e+01   7.2285103000000007e+01
  -2.0588699999999999e-01  -7.8458900000000000e+01   7.2496100999999996e+01
  -2.0983399999999999e-01  -7.8513496000000004e+01   7.2686995999999994e+01
  -4.2526399999999998e-01  -7.8426697000000004e+01   7.2541702000000001e+01
  -4.3082799999999999e-01  -7.8481102000000007e+01   7.2721901000000003e+01
  -6.6546300000000003e-01  -7.8428000999999995e+01   7.2787903000000000e+01
  -6.6086800000000001e-01  -7.8381103999999993e+01   7.2640404000000004e+01
  -6.5058700000000003e-01  -7.8289703000000003e+01   7.2507300999999998e+01
  -6.5426399999999996e-01  -7.8149696000000006e+01   7.2447997999999998e+01
  -6.5469999999999995e-01  -7.7945899999999995e+01   7.2467299999999994e+01
  -2.9080899999999998e-01  -7.7694999999999993e+01   7.2227599999999995e+01
  -3.7528699999999998e-01  -7.7858802999999995e+01   7.2116898000000006e+01
  -3.3323399999999997e-01  -7.7823700000000002e+01   7.2215202000000005e+01
  -1.5035900000000000e+00  -7.7786902999999995e+01   7.2768897999999993e+01
  -1.5550999999999999e+00  -7.7769301999999996e+01   7.2895698999999993e+01
  -1.5646100000000001e+00  -7.7814003000000000e+01   7.3009299999999996e+01
  -1.4660599999999999e+00  -7.7944396999999995e+01   7.2960402999999999e+01
  -1.5257400000000001e+00  -7.7887398000000005e+01   7.3103202999999993e+01
  -1.4692499999999999e+00  -7.7963500999999994e+01   7.3042297000000005e+01
  -1.3858100000000000e+00  -7.8017600999999999e+01   7.3077599000000006e+01
  -1.2552600000000000e+00  -7.8093399000000005e+01   7.3111503999999996e+01
  -1.4308600000000000e+00  -7.7954696999999996e+01   7.3173500000000004e+01
  -1.2909400000000000e+00  -7.8033896999999996e+01   7.3213898000000000e+01
  -4.2092600000000002e-01  -7.8446197999999995e+01   7.3110802000000007e+01
  -4.1807600000000000e-01  -7.8476699999999994e+01   7.2986900000000006e+01
  -2.0263900000000001e-01  -7.8495498999999995e+01   7.3088798999999995e+01
  -2.0103199999999999e-01  -7.8520401000000007e+01   7.2968597000000003e+01
  -2.0562700000000000e-01  -7.8529899999999998e+01   7.2841103000000004e+01
  -4.2475200000000002e-01  -7.8492598999999998e+01   7.2864304000000004e+01
  -6.5822599999999998e-01  -7.8412598000000003e+01   7.3031799000000007e+01
  -8.9286900000000002e-01  -7.8321899000000002e+01   7.3082497000000004e+01
  -6.6204700000000005e-01  -7.8433800000000005e+01   7.2917702000000006e+01
  -8.8686600000000004e-01  -7.8350403000000000e+01   7.2971603000000002e+01
  -6.6246700000000003e-01  -7.8373596000000006e+01   7.3144699000000003e+01
  -9.0264900000000003e-01  -7.8274101000000002e+01   7.3182502999999997e+01
  -5.3442999999999996e-01  -7.7827102999999994e+01   7.2078902999999997e+01
  -4.4333099999999998e-01  -7.7625702000000004e+01   7.2271500000000003e+01
  -1.2195600000000000e+00  -7.8133201999999997e+01   7.2988403000000005e+01
  -1.3521700000000001e+00  -7.8040999999999997e+01   7.2965698000000003e+01
  -1.0919399999999999e+00  -7.8204802999999998e+01   7.3113197000000000e+01
  -1.1141399999999999e+00  -7.8149696000000006e+01   7.3212196000000006e+01
  -1.0695300000000001e+00  -7.8242699000000002e+01   7.2995002999999997e+01
  -1.0453600000000001e+00  -7.7288002000000006e+01   7.2558700999999999e+01
  -1.0095099999999999e+00  -7.7169998000000007e+01   7.2643600000000006e+01
  -1.1031500000000001e+00  -7.7334098999999995e+01   7.2569503999999995e+01
  -1.0415300000000001e+00  -7.7199500999999998e+01   7.2655799999999999e+01
  -1.0895200000000000e+00  -7.7427695999999997e+01   7.2587699999999998e+01
  -1.0513399999999999e+00  -7.7277000000000001e+01   7.2654799999999994e+01
  -8.3595799999999998e-01  -7.7611396999999997e+01   7.2642899000000000e+01
  -8.2354700000000003e-01  -7.7359497000000005e+01   7.2710601999999994e+01
  -6.6540999999999995e-01  -7.7679100000000005e+01   7.2568000999999995e+01
  -6.5963799999999995e-01  -7.7427199999999999e+01   7.2650397999999996e+01
  -4.9497600000000003e-01  -7.7691299000000001e+01   7.2451201999999995e+01
  -5.2771900000000005e-01  -7.7486999999999995e+01   7.2561203000000006e+01
  -3.1918900000000000e-01  -7.7484298999999993e+01   7.2363197000000000e+01
  -3.9269399999999999e-01  -7.7329696999999996e+01   7.2472198000000006e+01
  -4.7143299999999999e-01  -7.7388496000000004e+01   7.2433197000000007e+01
  -5.3445100000000001e-01  -7.7239197000000004e+01   7.2554398000000006e+01
  -7.0597699999999997e-01  -7.7325798000000006e+01   7.2512198999999995e+01
  -7.3950300000000002e-01  -7.7174599000000001e+01   7.2636497000000006e+01
  -3.5539399999999999e-01  -7.7598900000000000e+01   7.2376098999999996e+01
  -4.4563700000000001e-01  -7.7390404000000004e+01   7.2518501000000001e+01
  -9.8702999999999996e-01  -7.7519699000000003e+01   7.2632598999999999e+01
  -9.6637700000000004e-01  -7.7300903000000005e+01   7.2698997000000006e+01
  -9.0566300000000000e-01  -7.7284301999999997e+01   7.2554100000000005e+01
  -9.0915500000000005e-01  -7.7149497999999994e+01   7.2661201000000005e+01
  -7.8581000000000001e-01  -7.7195801000000003e+01   7.2706299000000001e+01
  -9.3818900000000005e-01  -7.7165397999999996e+01   7.2707702999999995e+01
  -6.0385200000000006e-01  -7.7266998000000001e+01   7.2634101999999999e+01
  -1.3119600000000001e-01  -7.1752601999999996e+01   6.9435401999999996e+01
  -1.6072900000000001e-01  -7.2263199000000000e+01   6.9426597999999998e+01
  -3.3071299999999998e-01  -7.1671897999999999e+01   6.9509499000000005e+01
  -3.6588500000000002e-01  -7.2208602999999997e+01   6.9507300999999998e+01
  -6.3574200000000003e-01  -7.2187102999999993e+01   6.9547095999999996e+01
  -8.9400299999999999e-01  -7.2192001000000005e+01   6.9565597999999994e+01
  -6.3348199999999999e-01  -7.1637496999999996e+01   6.9546599999999998e+01
  -9.4087900000000002e-01  -7.1622200000000007e+01   6.9567595999999995e+01
  -3.1017200000000000e-01  -7.0670699999999997e+01   7.0386398000000000e+01
  -6.1168999999999996e-01  -7.0706001000000001e+01   7.0410697999999996e+01
  -3.0026399999999998e-01  -7.1550697000000000e+01   7.0252502000000007e+01
  -5.8929699999999996e-01  -7.1566497999999996e+01   7.0276100000000000e+01
  -2.7870000000000000e-01  -7.2286797000000007e+01   7.0066497999999996e+01
  -5.4862800000000000e-01  -7.2296402000000000e+01   7.0091599000000002e+01
  -5.1313399999999998e-01  -7.3004501000000005e+01   6.9876503000000000e+01
  -4.8880200000000001e-01  -7.3722603000000007e+01   6.9656799000000007e+01
  -2.5563399999999997e-01  -7.2995902999999998e+01   6.9850600999999997e+01
  -2.3832900000000001e-01  -7.3717903000000007e+01   6.9630500999999995e+01
  -4.7709900000000000e-01  -7.4983704000000003e+01   6.9317100999999994e+01
  -4.8809399999999997e-01  -7.5258499000000000e+01   6.9245200999999994e+01
  -5.0532200000000005e-01  -7.5347504000000001e+01   6.9211997999999994e+01
  -2.3355300000000001e-01  -7.5012298999999999e+01   6.9292702000000006e+01
  -2.4065800000000001e-01  -7.5305801000000002e+01   6.9230103000000000e+01
  -2.5045600000000001e-01  -7.5409698000000006e+01   6.9206703000000005e+01
  -8.8830900000000002e-01  -7.0781600999999995e+01   7.0401497000000006e+01
  -1.0934299999999999e+00  -7.0853797999999998e+01   7.0363403000000005e+01
