0.10734 0.23289 0.22203
0.1067 0.23318 0.21367
0.10598 0.2346 0.20545
0.10435 0.23982 0.22277
0.10393 0.23965 0.21474
0.1034 0.24055 0.20673
0.10516 0.23904 0.17963
0.10531 0.23237 0.17656
0.10456 0.22487 0.17293
0.10465 0.24385 0.17304
0.10477 0.23752 0.17021
0.104 0.23062 0.16681
0.10527 0.237 0.19726
0.1046 0.24035 0.18929
0.10286 0.24248 0.19873
0.10234 0.24544 0.19088
0.10185 0.24932 0.18335
0.10401 0.24454 0.18181
0.10142 0.25368 0.17645
0.10352 0.24911 0.17503
0.099911 0.24628 0.20771
0.09952 0.24782 0.19989
0.09916 0.25039 0.19214
0.10064 0.24624 0.22331
0.10033 0.24577 0.21553
0.10359 0.21043 0.17492
0.1045 0.20182 0.18128
0.10119 0.20399 0.17065
0.10224 0.19552 0.17698
0.10246 0.22385 0.16325
0.10294 0.21779 0.16871
0.10016 0.21781 0.15997
0.10061 0.21152 0.165
0.10429 0.24839 0.16726
0.10441 0.24211 0.16472
0.10358 0.23531 0.16164
0.10399 0.25239 0.16189
0.10413 0.24598 0.15959
0.10323 0.2391 0.15676
0.10368 0.25561 0.15655
0.10387 0.24901 0.15439
0.10292 0.24205 0.15175
0.1034 0.25764 0.15113
0.10362 0.25093 0.14915
0.10262 0.24395 0.14676
0.10315 0.25359 0.16906
0.1028 0.2577 0.16356
0.10107 0.25806 0.17036
0.10071 0.26221 0.16484
0.10023 0.26602 0.15951
0.10239 0.2612 0.15816
0.099437 0.26959 0.1539
0.10201 0.26359 0.15263
0.098485 0.25807 0.17765
0.098217 0.26234 0.17151
0.097941 0.26646 0.16605
0.094473 0.27481 0.16264
0.097569 0.27025 0.16114
0.094209 0.27775 0.15879
0.096952 0.2736 0.15701
0.098806 0.25394 0.18462
0.10138 0.23253 0.15369
0.10193 0.22869 0.15837
0.098874 0.22676 0.15093
0.099555 0.2228 0.15538
0.095942 0.22211 0.14895
0.096542 0.21803 0.15305
0.097086 0.21298 0.15733
0.09237 0.21852 0.14764
0.09282 0.21437 0.15136
0.093265 0.20934 0.15534
0.1009 0.23553 0.14889
0.098262 0.22991 0.14641
0.10046 0.23749 0.14419
0.097705 0.23203 0.14207
0.097552 0.20662 0.1621
0.098232 0.19893 0.16756
0.093772 0.20299 0.15993
0.094551 0.19524 0.16523
0.095837 0.18605 0.17126
0.099429 0.19018 0.17375
0.09781 0.1753 0.17805
0.1012 0.18136 0.18031
0.087979 0.21589 0.14676
0.088378 0.21173 0.1502
0.088804 0.20675 0.15395
0.083173 0.21422 0.14624
0.083588 0.21007 0.1495
0.084035 0.20516 0.15309
0.095363 0.22548 0.14482
0.091892 0.22212 0.14391
0.09481 0.22785 0.14088
0.091397 0.22477 0.14036
0.10151 0.16003 0.18732
0.098322 0.1576 0.18518
0.10146 0.16877 0.18444
0.097821 0.16565 0.18152
0.088305 0.15503 0.18094
0.093682 0.1561 0.18284
0.093005 0.16513 0.17857
0.087661 0.1644 0.17653
0.092328 0.17436 0.17425
0.086975 0.17363 0.17209
0.077662 0.15585 0.179
0.082883 0.15497 0.17966
0.10358 0.17405 0.18676
0.082355 0.16436 0.17539
0.077243 0.16523 0.17503
0.081789 0.17361 0.17104
0.076778 0.17455 0.17086
0.071966 0.17652 0.17137
0.072369 0.16703 0.17531
0.072727 0.15751 0.17893
0.067462 0.17919 0.17228
0.067744 0.16967 0.17608
0.067981 0.16014 0.17948
0.091184 0.18386 0.16887
0.086136 0.18277 0.16715
0.090116 0.19276 0.16338
0.085286 0.19137 0.16205
0.08045 0.191 0.16133
0.081133 0.18261 0.16624
0.075715 0.1917 0.16123
0.076266 0.18347 0.16612
0.089343 0.20044 0.15834
0.084586 0.19892 0.15729
0.071147 0.19343 0.16169
0.071577 0.18538 0.16666
0.066954 0.19574 0.16246
0.067231 0.18792 0.16754
0.079823 0.19841 0.15675
0.075145 0.19896 0.1567
0.079286 0.20457 0.15269
0.074627 0.20502 0.1527
0.070129 0.20649 0.15304
0.070626 0.20054 0.1571
0.066124 0.20853 0.15355
0.066541 0.20269 0.15774
0.078411 0.21352 0.146
0.078839 0.20941 0.14921
0.073802 0.21386 0.14596
0.074206 0.2098 0.14923
0.087544 0.21965 0.14334
0.082728 0.21806 0.14299
0.087076 0.22254 0.14008
0.082265 0.2211 0.13987
0.069426 0.2152 0.14604
0.069758 0.2112 0.14947
0.065605 0.21707 0.14619
0.065838 0.21315 0.14983
0.077942 0.21739 0.14277
0.073343 0.21769 0.1426
0.077492 0.22049 0.13963
0.072929 0.22079 0.1393
0.068694 0.22201 0.1389
0.069043 0.21895 0.14245
0.06506 0.22373 0.13851
0.06533 0.22074 0.14233
0.090981 0.28031 0.16401
0.090801 0.28328 0.16001
0.054419 0.23267 0.14794
0.053011 0.24002 0.14912
0.05273 0.24774 0.15071
0.054641 0.23585 0.14325
0.053506 0.24312 0.14425
0.053537 0.25087 0.14567
0.054899 0.23853 0.13872
0.054044 0.24564 0.13958
0.054369 0.25327 0.14086
0.052015 0.24427 0.15582
0.052576 0.23664 0.15399
0.054223 0.22926 0.15253
0.051319 0.24049 0.16138
0.052113 0.2328 0.15923
0.053972 0.2253 0.15738
0.056734 0.21889 0.15591
0.056838 0.22307 0.15146
0.05689 0.22661 0.14717
0.05984 0.21403 0.15484
0.059823 0.21842 0.15072
0.059781 0.22212 0.1467
0.059702 0.22558 0.14241
0.056929 0.22992 0.14268
0.059613 0.22845 0.13816
0.056981 0.23272 0.13828
0.05054 0.23643 0.16771
0.051511 0.2284 0.16522
0.053538 0.22031 0.16303
0.049605 0.23259 0.17456
0.050654 0.22393 0.1719
0.052682 0.21393 0.17011
0.053474 0.25494 0.15268
0.052516 0.25131 0.15796
0.051624 0.24751 0.16374
0.055065 0.26144 0.15507
0.053968 0.25768 0.16044
0.052961 0.25389 0.16637
0.06284 0.21081 0.1541
0.062683 0.21534 0.15022
0.062549 0.21917 0.1464
0.056531 0.21362 0.16094
0.059843 0.20849 0.15944
0.056194 0.20727 0.16652
0.059781 0.20194 0.16454
0.063268 0.19833 0.16333
0.06307 0.2051 0.15845
0.051926 0.19695 0.1807
0.052681 0.20489 0.17503
0.055535 0.19188 0.17715
0.055902 0.19983 0.17196
0.059414 0.18646 0.17489
0.059618 0.19458 0.1699
0.04847 0.22947 0.18155
0.049392 0.22075 0.17885
0.050622 0.21226 0.17726
0.04716 0.22707 0.18851
0.048006 0.21802 0.18571
0.049173 0.20988 0.18349
0.050698 0.2437 0.17033
0.049685 0.24028 0.17738
0.051953 0.2503 0.17314
0.050899 0.24726 0.18029
0.057285 0.26728 0.15784
0.056195 0.26357 0.16325
0.055177 0.25986 0.1693
0.059855 0.27284 0.16067
0.058847 0.26921 0.16613
0.057868 0.26552 0.1723
0.054568 0.25826 0.14752
0.056369 0.26503 0.14987
0.055698 0.2608 0.14257
0.058055 0.26871 0.14484
0.050297 0.20389 0.18154
0.048101 0.18986 0.19169
0.049749 0.19365 0.18674
0.049727 0.1856 0.18971
0.052091 0.18807 0.18447
0.051972 0.18074 0.18781
0.048553 0.23761 0.18441
0.047308 0.23579 0.19136
0.049774 0.24508 0.1873
0.04858 0.24381 0.19418
0.047313 0.24341 0.20103
0.045952 0.2348 0.19826
0.045696 0.22532 0.19537
0.045906 0.24365 0.2079
0.044424 0.23447 0.20512
0.044022 0.2242 0.20211
0.044667 0.21344 0.19892
0.046462 0.21549 0.19241
0.045809 0.20358 0.19592
0.047646 0.2066 0.18976
0.053129 0.25372 0.18336
0.052031 0.25189 0.19027
0.050876 0.25096 0.19697
0.055895 0.25956 0.18636
0.054843 0.25786 0.1931
0.053735 0.25705 0.1996
0.054168 0.25647 0.17619
0.056893 0.26219 0.17923
0.063339 0.18232 0.17338
0.063333 0.19075 0.16854
0.055363 0.18333 0.18139
0.059225 0.17767 0.17897
0.055116 0.17511 0.1851
0.058978 0.16901 0.18256
0.063342 0.16394 0.18067
0.063368 0.1731 0.17725
0.048706 0.19968 0.18774
0.046925 0.19583 0.1935
0.049658 0.25087 0.20367
0.048312 0.25139 0.21046
0.05256 0.25702 0.20611
0.051255 0.25759 0.21281
0.062544 0.27839 0.16327
0.061622 0.27472 0.16883
0.060681 0.27089 0.1751
0.059739 0.2674 0.18203
0.058784 0.26463 0.18905
0.058509 0.27073 0.15286
0.060893 0.27604 0.15578
0.059895 0.27394 0.14885
0.061873 0.27852 0.15178
0.063418 0.28144 0.15837
0.064185 0.2836 0.15418
0.057796 0.26284 0.19562
0.056763 0.26196 0.20193
0.059215 0.26544 0.21035
0.055664 0.26182 0.20831
0.058102 0.26565 0.21691
0.054433 0.26227 0.21493
0.063491 0.26804 0.21228
0.062543 0.26797 0.2188
0.063041 0.2798 0.14554
0.065284 0.28465 0.14715
0.067563 0.28935 0.1489
0.063484 0.27895 0.14164
0.065765 0.2837 0.14303
0.068004 0.28815 0.14449
0.072835 0.29651 0.15203
0.069992 0.29349 0.15059
0.072557 0.29662 0.15625
0.069633 0.29367 0.15462
0.067129 0.28949 0.15268
0.064771 0.28463 0.15062
0.062446 0.27951 0.14852
0.060749 0.27498 0.14471
0.055165 0.2546 0.13632
0.054617 0.24729 0.1352
0.055214 0.24042 0.13448
0.057075 0.23467 0.13416
0.05955 0.23037 0.13417
0.062185 0.22568 0.13825
0.062032 0.22755 0.13443
0.064865 0.22558 0.13489
0.058631 0.26824 0.13933
0.056571 0.26167 0.13776
0.081813 0.22277 0.13686
0.086597 0.22404 0.13699
0.090903 0.22608 0.13706
0.086956 0.29121 0.15316
0.090672 0.28555 0.15262
0.094139 0.27972 0.15218
0.087003 0.29032 0.14828
0.090703 0.28483 0.14789
0.094256 0.27902 0.14756
0.097262 0.27401 0.14749
0.096874 0.2749 0.15252
0.099798 0.26923 0.14745
0.094225 0.27918 0.15556
0.094275 0.22895 0.13724
0.097165 0.23295 0.138
0.10002 0.23827 0.13967
0.1023 0.24462 0.1418
0.10337 0.25151 0.14382
0.1032 0.25818 0.14549
0.10191 0.26403 0.1467
0.079909 0.2975 0.15353
0.08342 0.29528 0.15352
0.080097 0.29627 0.14841
0.083525 0.29421 0.1485
0.090717 0.28501 0.15641
0.087001 0.29069 0.1572
0.076261 0.2979 0.15303
0.073194 0.2951 0.14708
0.076543 0.29654 0.14794
0.083417 0.29488 0.15776
0.079821 0.29728 0.15787
0.070397 0.29212 0.14588
0.076076 0.29786 0.15736
0.061054 0.27394 0.14044
0.062373 0.22274 0.14231
0.07713 0.22225 0.13656
0.072663 0.2226 0.13609
0.068475 0.22384 0.13549
0.092316 0.25024 0.043977
0.095842 0.24863 0.044706
0.09914 0.24627 0.045633
0.094314 0.24725 0.038483
0.097883 0.24537 0.039305
0.10116 0.24279 0.040418
0.10457 0.23956 0.048304
0.10209 0.2432 0.04684
0.10281 0.24349 0.054652
0.10017 0.2471 0.053136
0.097095 0.25014 0.051884
0.10116 0.2476 0.062056
0.098377 0.25124 0.060583
0.095186 0.25435 0.059339
0.085173 0.25129 0.042668
0.088695 0.25108 0.043318
0.086663 0.24899 0.037531
0.090582 0.24843 0.037891
0.093752 0.25238 0.050875
0.090211 0.25373 0.049991
0.091794 0.25654 0.058294
0.088234 0.25769 0.057329
0.10139 0.21904 0.059388
0.098383 0.2167 0.06061
0.095107 0.21464 0.061484
0.10152 0.21534 0.052929
0.09833 0.21326 0.054241
0.094955 0.21139 0.055154
0.087284 0.21072 0.062281
0.091458 0.21257 0.061989
0.087699 0.21335 0.069412
0.091761 0.21541 0.069073
0.095287 0.21769 0.068449
0.088134 0.21572 0.076682
0.092077 0.21802 0.076232
0.095452 0.22056 0.075452
0.098427 0.21994 0.067446
0.10125 0.2225 0.066085
0.098447 0.22301 0.074304
0.10108 0.22577 0.072843
0.10643 0.23554 0.04999
0.10743 0.23164 0.051908
0.10629 0.23589 0.043008
0.10797 0.23164 0.044477
0.10878 0.22737 0.046059
0.10625 0.22511 0.056089
0.10738 0.22825 0.054024
0.1055 0.22909 0.06251
0.10629 0.23242 0.060452
0.10604 0.23585 0.058376
0.10475 0.23296 0.06932
0.10521 0.23656 0.067447
0.10469 0.24011 0.065574
0.10399 0.23964 0.041635
0.10483 0.23962 0.056417
0.10331 0.24382 0.063747
0.10838 0.22418 0.048139
0.10692 0.22132 0.050128
0.10413 0.22196 0.057883
0.10371 0.22566 0.064416
0.10328 0.22922 0.071149
0.078178 0.25066 0.042863
0.081702 0.25128 0.042752
0.078219 0.24853 0.037771
0.082508 0.24904 0.03752
0.086565 0.25414 0.049046
0.083088 0.25366 0.047686
0.084453 0.25774 0.056227
0.080214 0.2565 0.054495
0.082529 0.20941 0.062498
0.077562 0.20883 0.062612
0.086936 0.20752 0.055962
0.082015 0.20646 0.056444
0.076946 0.206 0.056643
0.078078 0.21122 0.069555
0.083031 0.21189 0.069565
0.078537 0.21341 0.076776
0.083507 0.21412 0.076859
0.10451 0.21826 0.051707
0.091231 0.2094 0.055687
0.059271 0.23465 0.050327
0.061372 0.23879 0.048516
0.064036 0.2425 0.046922
0.058313 0.23187 0.044533
0.060447 0.23625 0.04293
0.063189 0.24013 0.041512
0.070545 0.248 0.044612
0.067094 0.24559 0.045645
0.071247 0.25079 0.050707
0.067819 0.24835 0.051938
0.064794 0.24525 0.053317
0.071709 0.25409 0.05808
0.068311 0.25152 0.059377
0.06532 0.24831 0.060727
0.057334 0.22596 0.054098
0.057913 0.23029 0.052223
0.056531 0.22302 0.047948
0.057004 0.22726 0.046202
0.062175 0.24161 0.05495
0.060088 0.23759 0.056777
0.062737 0.24461 0.062245
0.06066 0.24058 0.063917
0.068616 0.20986 0.062215
0.065149 0.21112 0.061506
0.062346 0.21292 0.06046
0.068268 0.20733 0.056457
0.064808 0.20844 0.055668
0.061885 0.21003 0.054414
0.058471 0.21847 0.057605
0.060103 0.21539 0.059142
0.058911 0.22145 0.064153
0.060478 0.2183 0.065732
0.062681 0.21573 0.067097
0.05921 0.22435 0.070947
0.060743 0.2211 0.072511
0.062946 0.2184 0.073884
0.072821 0.20904 0.062553
0.072326 0.20647 0.056772
0.06546 0.21377 0.068171
0.068955 0.21235 0.068926
0.065759 0.21628 0.075
0.069307 0.2147 0.075851
0.059584 0.21253 0.053141
0.057887 0.21561 0.051577
0.057531 0.22203 0.055903
0.05799 0.22915 0.06061
0.058072 0.22512 0.062438
0.058439 0.23214 0.067494
0.058437 0.22808 0.06926
0.073257 0.21144 0.069365
0.073668 0.21367 0.076442
0.056847 0.21915 0.049805
0.058673 0.23338 0.058696
0.0592 0.23636 0.06569
0.074356 0.24969 0.04372
0.069895 0.24577 0.039234
0.073931 0.24748 0.038381
0.078903 0.25313 0.04781
0.066326 0.24331 0.040319
0.075043 0.25244 0.04944
0.075588 0.25584 0.056618
0.064075 0.27762 0.13628
0.066277 0.28198 0.1375
0.068467 0.286 0.13864
0.059536 0.23165 0.12955
0.057294 0.23604 0.12943
0.055722 0.24169 0.12963
0.05958 0.23264 0.12346
0.057684 0.23711 0.12321
0.05651 0.24256 0.12328
0.05963 0.23316 0.11623
0.0581 0.23768 0.11585
0.057335 0.2429 0.11576
0.056059 0.25507 0.13111
0.055365 0.24823 0.13019
0.061927 0.22865 0.12996
0.064749 0.22649 0.13059
0.057485 0.26162 0.13232
0.05944 0.2676 0.13367
0.05716 0.25497 0.12436
0.058571 0.26099 0.12532
0.06044 0.26654 0.1265
0.058312 0.25435 0.11638
0.059741 0.25992 0.11706
0.061582 0.26512 0.11803
0.056387 0.24867 0.12367
0.057449 0.24857 0.11594
0.090402 0.22637 0.13295
0.086122 0.22444 0.13309
0.081401 0.2233 0.13306
0.089905 0.22607 0.1271
0.085674 0.22412 0.12748
0.081039 0.2231 0.12769
0.089524 0.22536 0.1202
0.085288 0.22334 0.12076
0.080677 0.22238 0.12114
0.076182 0.22225 0.12085
0.076531 0.22284 0.12738
0.076826 0.22291 0.13273
0.071936 0.22292 0.12003
0.072242 0.22339 0.12666
0.072468 0.22335 0.13213
0.096659 0.23313 0.1333
0.093762 0.22921 0.13289
0.096224 0.23304 0.12714
0.093298 0.22908 0.12693
0.095927 0.23257 0.11997
0.092977 0.22858 0.11996
0.087199 0.28805 0.14168
0.090842 0.28293 0.14141
0.094368 0.27746 0.14109
0.097396 0.27268 0.14079
0.099894 0.26815 0.14042
0.10188 0.24432 0.13604
0.099542 0.23824 0.13446
0.10137 0.24338 0.12873
0.099057 0.23781 0.12777
0.10093 0.24189 0.12043
0.098675 0.23691 0.1201
0.103 0.25747 0.1389
0.10306 0.25097 0.1376
0.10277 0.25589 0.13078
0.10265 0.24964 0.12981
0.10261 0.25366 0.12162
0.1023 0.24771 0.12102
0.10185 0.26319 0.13983
0.09996 0.26624 0.13186
0.10178 0.26144 0.13143
0.10015 0.26362 0.12218
0.10181 0.259 0.12197
0.094618 0.27495 0.13249
0.097562 0.27053 0.13221
0.095073 0.2718 0.1225
0.097896 0.2677 0.12237
0.08042 0.29358 0.14161
0.08378 0.29167 0.14177
0.073653 0.2924 0.14052
0.076945 0.29378 0.14119
0.070859 0.28964 0.13966
0.087597 0.28456 0.13277
0.091173 0.27992 0.13269
0.088197 0.28047 0.12233
0.091721 0.27631 0.12248
0.080899 0.28959 0.13249
0.084219 0.28785 0.13271
0.081509 0.28501 0.12186
0.084827 0.28343 0.12211
0.074211 0.28859 0.13177
0.07748 0.28979 0.13216
0.074823 0.2842 0.12154
0.078115 0.28521 0.12163
0.068947 0.28312 0.13086
0.07137 0.28621 0.13136
0.069392 0.27983 0.12204
0.071868 0.28222 0.12168
0.064774 0.27585 0.12907
0.066834 0.27967 0.13005
0.065637 0.27393 0.12084
0.067474 0.27703 0.12136
0.061727 0.27289 0.135
0.06259 0.27149 0.12779
0.063652 0.26985 0.11931
0.075448 0.27974 0.1107
0.078811 0.28066 0.11053
0.082218 0.28049 0.11068
0.076171 0.27526 0.099424
0.079607 0.27615 0.099128
0.083043 0.27604 0.099259
0.085569 0.27909 0.11098
0.088967 0.2764 0.11134
0.086439 0.27478 0.099609
0.089875 0.27228 0.10009
0.069157 0.27098 0.10283
0.070339 0.26633 0.089253
0.0712 0.26201 0.077433
0.066339 0.26594 0.10015
0.067397 0.26258 0.088935
0.068111 0.25882 0.077985
0.063909 0.26121 0.098975
0.064785 0.25833 0.088684
0.065336 0.25502 0.078539
0.071685 0.25789 0.067017
0.075288 0.25996 0.065966
0.074564 0.26441 0.076739
0.079123 0.26131 0.065201
0.078087 0.26603 0.07623
0.073641 0.26895 0.088467
0.072751 0.27349 0.10046
0.077075 0.27069 0.087776
0.072281 0.27799 0.11146
0.069476 0.27606 0.11323
0.066976 0.27252 0.11269
0.064947 0.26814 0.11019
0.062789 0.26342 0.10881
0.08656 0.26215 0.066325
0.082905 0.26218 0.065591
0.085173 0.26685 0.07664
0.081644 0.26689 0.076238
0.068419 0.25506 0.068066
0.065513 0.25162 0.069157
0.08055 0.27157 0.087573
0.084015 0.2715 0.087776
0.078932 0.21518 0.08386
0.083941 0.21592 0.083989
0.088556 0.2177 0.083777
0.079266 0.21678 0.091106
0.084295 0.21758 0.091222
0.088905 0.21952 0.090946
0.095669 0.22564 0.089539
0.095577 0.22319 0.082396
0.098418 0.22853 0.088411
0.098437 0.22583 0.081206
0.10078 0.23176 0.087134
0.10092 0.2288 0.079778
0.07956 0.21842 0.098772
0.084546 0.21929 0.098776
0.089133 0.22133 0.098393
0.079877 0.21999 0.10655
0.084754 0.22091 0.10637
0.08926 0.22298 0.10587
0.074047 0.2155 0.083372
0.074423 0.2171 0.090519
0.069665 0.21664 0.082617
0.070068 0.21828 0.089624
0.095753 0.26832 0.11195
0.098455 0.26441 0.11202
0.10055 0.26049 0.11203
0.096587 0.26455 0.10114
0.09917 0.26073 0.10149
0.1011 0.25691 0.10178
0.1024 0.25266 0.10215
0.10203 0.25605 0.11208
0.10283 0.24783 0.10254
0.10265 0.25095 0.11208
0.095811 0.2315 0.11247
0.092866 0.22761 0.11274
0.089344 0.22433 0.11311
0.095782 0.22991 0.10481
0.092843 0.22621 0.10537
0.084988 0.22227 0.1137
0.08027 0.22133 0.11404
0.075262 0.22005 0.10607
0.075738 0.22128 0.11368
0.071048 0.22096 0.10509
0.071528 0.22206 0.11276
0.064028 0.22508 0.10259
0.064347 0.22601 0.11033
0.064579 0.2266 0.11784
0.061439 0.22826 0.10146
0.061637 0.22912 0.10927
0.061787 0.22949 0.11691
0.059592 0.23213 0.10053
0.059633 0.23297 0.10847
0.074822 0.21863 0.098201
0.070542 0.2197 0.097229
0.095739 0.22791 0.097079
0.098435 0.23348 0.10411
0.098417 0.23112 0.096111
0.10066 0.2375 0.10342
0.10069 0.23472 0.095079
0.092371 0.22032 0.083252
0.092611 0.22245 0.090384
0.098491 0.23545 0.11215
0.10071 0.23992 0.11192
0.092769 0.22445 0.097831
0.063389 0.2224 0.087513
0.066389 0.22004 0.088609
0.06369 0.22388 0.094898
0.066812 0.22145 0.096085
0.067269 0.22264 0.10386
0.092473 0.27255 0.11169
0.093372 0.26862 0.10065
0.090902 0.26794 0.088827
0.094371 0.26441 0.089558
0.097507 0.26044 0.090314
0.092097 0.26342 0.078001
0.095505 0.26001 0.078917
0.098541 0.25615 0.079946
0.10088 0.25243 0.081047
0.099964 0.25669 0.091021
0.10251 0.24876 0.082193
0.10174 0.25296 0.091721
0.087447 0.27032 0.088216
0.088646 0.26572 0.07724
0.061051 0.22538 0.086346
0.061232 0.227 0.093755
0.059447 0.22894 0.085128
0.059524 0.23074 0.092697
0.068013 0.22439 0.11895
0.067688 0.22364 0.11156
0.066051 0.21834 0.08169
0.06316 0.2206 0.080594
0.058655 0.23296 0.083882
0.058636 0.23498 0.091736
0.058554 0.23656 0.099821
0.058672 0.23732 0.082633
0.058567 0.23957 0.090855
0.058332 0.24138 0.099283
0.057941 0.24251 0.10767
0.058389 0.23749 0.10795
0.06091 0.22344 0.079321
0.059366 0.22683 0.077905
0.062986 0.24773 0.070389
0.060929 0.24355 0.071769
0.062906 0.25085 0.079306
0.060911 0.24643 0.080284
0.05945 0.2392 0.073269
0.058649 0.23485 0.074831
0.05946 0.24187 0.081414
0.0601 0.25146 0.098598
0.060633 0.24914 0.08934
0.058892 0.2464 0.098864
0.059275 0.24435 0.090039
0.061807 0.25641 0.098567
0.062505 0.25382 0.088839
0.059315 0.25319 0.10769
0.058292 0.24782 0.10758
0.060856 0.25842 0.10805
0.058611 0.23068 0.076393
0.061866 0.2293 0.124
0.064686 0.22679 0.12479
0.090088 0.26105 0.067152
0.093517 0.25883 0.068089
0.096827 0.25558 0.069201
0.099743 0.25184 0.070493
0.10199 0.24811 0.071945
0.10349 0.24445 0.073485
0.10344 0.24487 0.083369
0.10285 0.24889 0.092476
0.1035 0.2406 0.084584
0.1031 0.24433 0.093284
0.10423 0.24073 0.075048
0.10406 0.2368 0.076628
0.10221 0.24251 0.10293
0.10233 0.23934 0.09414
0.10255 0.23598 0.085844
0.10288 0.23262 0.078224
0.10217 0.24532 0.11196
0.068341 0.22466 0.13137
0.068212 0.22478 0.12574
0.095919 0.24462 0.03372
0.09956 0.24255 0.034573
0.10284 0.23987 0.035744
0.08786 0.24683 0.032851
0.092047 0.24604 0.033146
0.10174 0.21046 0.047466
0.098272 0.20912 0.049388
0.094929 0.2074 0.050458
0.10775 0.23273 0.038631
0.1093 0.22818 0.039713
0.11021 0.22314 0.040486
0.10558 0.23661 0.037229
0.10932 0.22023 0.043235
0.1076 0.21741 0.045219
0.078527 0.24661 0.033119
0.083289 0.24701 0.032842
0.086787 0.20246 0.051205
0.081478 0.20227 0.052106
0.075987 0.20169 0.051984
0.10501 0.21425 0.046633
0.091267 0.20528 0.051091
0.057428 0.22957 0.03938
0.059633 0.23421 0.038158
0.062486 0.23832 0.036745
0.055684 0.22062 0.042483
0.05612 0.22487 0.040668
0.067744 0.20429 0.051928
0.064336 0.20529 0.050996
0.06103 0.2064 0.049049
0.07154 0.20326 0.052324
0.058749 0.20966 0.048007
0.057075 0.21293 0.046337
0.05603 0.21658 0.044444
0.069506 0.24396 0.034468
0.073837 0.24562 0.033671
0.065751 0.24156 0.035488
0.11182 0.21847 0.034274
0.11216 0.21475 0.035505
0.11191 0.21118 0.036443
0.11227 0.21387 0.030785
0.11265 0.20927 0.032101
0.11241 0.20515 0.033277
0.11256 0.20875 0.026792
0.11292 0.2037 0.028206
0.11269 0.19929 0.029578
0.10917 0.20592 0.038961
0.11088 0.20854 0.037753
0.10838 0.21235 0.04191
0.11017 0.21501 0.040353
0.11125 0.21723 0.038575
0.11124 0.2214 0.037069
0.11025 0.22589 0.035733
0.11089 0.22268 0.032784
0.10875 0.23021 0.034658
0.10941 0.22679 0.030928
0.11027 0.21911 0.024285
0.10821 0.22372 0.023246
0.10566 0.22807 0.022405
0.10989 0.22302 0.027768
0.1078 0.22732 0.026273
0.10512 0.23152 0.025262
0.10732 0.23101 0.029572
0.1046 0.23459 0.028468
0.10131 0.23762 0.027533
0.10192 0.23487 0.024493
0.10287 0.23132 0.021602
0.09758 0.24009 0.026829
0.098227 0.23756 0.02391
0.099386 0.23386 0.020703
0.10686 0.20293 0.039748
0.10437 0.19893 0.039601
0.10982 0.19931 0.035378
0.10775 0.19678 0.035978
0.1057 0.19381 0.035739
0.1102 0.19324 0.0317
0.10826 0.19114 0.032289
0.10633 0.18922 0.032355
0.11144 0.20195 0.034413
0.11175 0.19586 0.030768
0.10337 0.20562 0.043505
0.10593 0.20922 0.043045
0.10027 0.19757 0.042174
0.098115 0.19637 0.043165
0.095631 0.19459 0.043968
0.10039 0.19067 0.038525
0.09851 0.18912 0.039596
0.096404 0.18735 0.0405
0.10054 0.18431 0.034493
0.098934 0.18261 0.035609
0.097089 0.18085 0.036609
0.089893 0.18931 0.044359
0.09289 0.19247 0.044518
0.088793 0.19648 0.047596
0.091961 0.19948 0.047735
0.095131 0.20167 0.047152
0.10215 0.19872 0.041302
0.10367 0.19186 0.035827
0.10207 0.19172 0.037291
0.10314 0.18547 0.031336
0.1019 0.18544 0.033139
0.098062 0.20332 0.04619
0.10065 0.20389 0.044713
0.060421 0.19734 0.043854
0.058709 0.1987 0.043157
0.057255 0.20014 0.041776
0.058926 0.19213 0.040415
0.057124 0.19363 0.039522
0.055701 0.1955 0.038073
0.0572 0.18726 0.036302
0.055456 0.18902 0.035476
0.054173 0.19128 0.034238
0.054511 0.20574 0.036852
0.055895 0.20265 0.040026
0.055949 0.21005 0.042106
0.057388 0.20677 0.044092
0.058906 0.20381 0.045325
0.083934 0.18753 0.044605
0.080425 0.18875 0.045818
0.0765 0.18835 0.045922
0.082382 0.18118 0.041666
0.079948 0.18193 0.04294
0.077077 0.18149 0.043166
0.081456 0.17607 0.038773
0.079381 0.17605 0.039628
0.076979 0.17596 0.04003
0.084483 0.1759 0.036604
0.084572 0.18144 0.040851
0.083099 0.17646 0.037939
0.076803 0.19582 0.049117
0.080962 0.19609 0.04898
0.08497 0.19529 0.04793
0.056489 0.22588 0.030739
0.058969 0.23114 0.029595
0.062148 0.2354 0.028859
0.056398 0.22442 0.027513
0.059018 0.22942 0.026378
0.062395 0.23368 0.025695
0.056424 0.22318 0.024689
0.058913 0.22725 0.023669
0.062426 0.23096 0.022442
0.069927 0.24102 0.02753
0.06578 0.23866 0.028168
0.069527 0.24245 0.030625
0.065567 0.24009 0.03149
0.062137 0.23687 0.032494
0.052676 0.1971 0.030853
0.053566 0.20059 0.033695
0.052492 0.20052 0.029539
0.053247 0.20482 0.031922
0.052509 0.20414 0.028231
0.054237 0.21588 0.034161
0.05417 0.21102 0.035671
0.054896 0.21842 0.038252
0.055104 0.21403 0.040205
0.054524 0.19796 0.036126
0.053262 0.19407 0.032621
0.054945 0.22092 0.032491
0.053751 0.21422 0.030037
0.054682 0.21937 0.028796
0.053447 0.21319 0.026361
0.05462 0.21829 0.025483
0.059137 0.23278 0.033603
0.056815 0.22804 0.034737
0.074587 0.17687 0.040292
0.07407 0.18279 0.043278
0.072227 0.17796 0.039944
0.071177 0.19291 0.046188
0.073624 0.19138 0.046554
0.073104 0.1975 0.049268
0.061097 0.20202 0.04673
0.053382 0.20939 0.03117
0.052811 0.20842 0.027304
0.055422 0.22317 0.036279
0.079605 0.24345 0.02657
0.084493 0.24363 0.026315
0.089158 0.24313 0.026239
0.080149 0.24187 0.024292
0.084945 0.24196 0.024027
0.089587 0.24129 0.023849
0.080641 0.24021 0.022377
0.085352 0.24016 0.022055
0.089992 0.23927 0.021698
0.088643 0.24493 0.029171
0.083951 0.24526 0.02918
0.079028 0.24497 0.029439
0.074636 0.2426 0.026985
0.070617 0.2395 0.024962
0.075296 0.24106 0.02461
0.071437 0.23785 0.022724
0.075976 0.23945 0.022604
0.066322 0.23709 0.025331
0.067018 0.23526 0.022705
0.074106 0.24405 0.02993
0.10466 0.18781 0.03219
0.086924 0.18939 0.044896
0.088785 0.18268 0.041381
0.086562 0.18284 0.041453
0.087921 0.17743 0.03819
0.086077 0.1772 0.037695
0.092784 0.17825 0.038096
0.091696 0.18347 0.041302
0.090265 0.17794 0.038466
0.094105 0.18561 0.041214
0.095043 0.17942 0.037523
0.068639 0.19401 0.045499
0.065531 0.19395 0.044166
0.069615 0.1873 0.04275
0.067501 0.18824 0.041543
0.065422 0.18803 0.039977
0.068193 0.18175 0.038339
0.066487 0.18288 0.036887
0.064789 0.18294 0.034958
0.071835 0.18551 0.043433
0.070122 0.17997 0.039392
0.06686 0.20035 0.048705
0.070117 0.19939 0.049323
0.11136 0.21856 0.029322
0.1117 0.21401 0.025471
0.062799 0.19612 0.044405
0.061165 0.19075 0.040779
0.059391 0.18591 0.036691
0.063262 0.18894 0.040141
0.061536 0.18479 0.036469
0.063356 0.18429 0.036032
0.063796 0.20144 0.048049
0.10393 0.23726 0.031858
0.10664 0.23399 0.033216
0.096933 0.24232 0.029943
0.10064 0.24006 0.030755
0.093522 0.24194 0.026406
0.092953 0.24395 0.02942
0.094021 0.23983 0.023794
0.094538 0.2374 0.021316
0.071905 0.18523 -0.0047073
0.072954 0.18618 -0.0046088
0.074119 0.18723 -0.004356
0.0732 0.18455 -0.0051293
0.074419 0.18572 -0.0048551
0.074743 0.18409 -0.0052411
0.073138 0.18827 -0.0038142
0.072246 0.18743 -0.0039892
0.07149 0.18665 -0.0040563
0.072495 0.18917 -0.003282
0.071747 0.18845 -0.0033993
0.071218 0.18759 -0.0035319
0.070862 0.18657 -0.0037264
0.070963 0.18521 -0.004323
0.070514 0.18516 -0.0039793
0.07125 0.1821 -0.0054432
0.071537 0.18356 -0.0051085
0.07237 0.18184 -0.0057135
0.072769 0.18314 -0.0054349
0.07345 0.18092 -0.0059285
0.074073 0.18233 -0.0056376
0.070665 0.18339 -0.0047619
0.070421 0.18156 -0.0051892
0.070164 0.18302 -0.0044422
0.069909 0.18079 -0.0049639
0.069939 0.17908 -0.0054454
0.070409 0.18008 -0.0055887
0.071097 0.18087 -0.0057456
0.070356 0.17794 -0.0058274
0.070697 0.17904 -0.0059081
0.071076 0.17997 -0.0059471
0.072181 0.18987 -0.0028711
0.071416 0.18913 -0.0029752
0.070956 0.18815 -0.0031451
0.071505 0.19106 -0.0024279
0.070689 0.19028 -0.0025418
0.070269 0.18915 -0.0027416
0.074521 0.18864 -0.0038035
0.073572 0.18943 -0.0033256
0.074744 0.18951 -0.0033907
0.074822 0.19016 -0.0030318
0.073404 0.19018 -0.0029023
0.074704 0.19105 -0.0026591
0.072944 0.19126 -0.0024816
0.075539 0.18781 -0.0041548
0.07574 0.18913 -0.0036076
0.076535 0.18846 -0.0038399
0.060111 0.19684 -0.0015298
0.061646 0.19746 -0.0015818
0.063166 0.19803 -0.0014581
0.061898 0.19573 -0.0019767
0.063407 0.19629 -0.0019024
0.06377 0.19447 -0.0021653
0.062448 0.19942 -0.0008867
0.060986 0.19884 -0.0010016
0.05956 0.19826 -0.00098223
0.062146 0.20038 -0.00035503
0.060681 0.19985 -0.00044476
0.059304 0.19915 -0.00052092
0.05838 0.19822 -0.00063253
0.058597 0.19706 -0.0010963
0.057775 0.1971 -0.00073589
0.059274 0.19402 -0.0019082
0.059629 0.19533 -0.0017458
0.060673 0.1934 -0.0021971
0.061283 0.19451 -0.0020952
0.061823 0.19225 -0.0023555
0.062795 0.19325 -0.0022895
0.058323 0.19563 -0.0013273
0.05814 0.19415 -0.0015364
0.057497 0.19566 -0.00093672
0.057387 0.19403 -0.0011778
0.057445 0.19235 -0.0014574
0.058136 0.19272 -0.0017578
0.059071 0.1929 -0.0020527
0.057747 0.19079 -0.0017377
0.05836 0.1915 -0.0019678
0.058977 0.19207 -0.0021397
0.062204 0.2011 9.0797e-05
0.060631 0.2006 1.5786e-05
0.05912 0.19981 -6.7376e-05
0.062752 0.20275 0.00076029
0.061061 0.20242 0.00078865
0.059021 0.20185 0.00096855
0.06397 0.19929 -0.00092119
0.063402 0.20043 -0.00038971
0.064481 0.2001 -0.00047011
0.064832 0.20067 -8.5921e-05
0.063624 0.20117 7.0178e-05
0.065485 0.20203 0.00045635
0.064251 0.2027 0.00068045
0.064746 0.19775 -0.0013643
0.065229 0.19904 -0.00079385
0.065833 0.19761 -0.0011443
0.086449 0.18667 -0.0052366
0.087086 0.18675 -0.005289
0.087929 0.18671 -0.005346
0.086331 0.18571 -0.0054806
0.087146 0.18554 -0.0056663
0.087947 0.18545 -0.0057454
0.086246 0.1841 -0.0057999
0.087222 0.18411 -0.0060042
0.088026 0.18401 -0.0060944
0.086013 0.1874 -0.0048308
0.085538 0.18631 -0.0050534
0.085281 0.1849 -0.0053108
0.085524 0.18817 -0.0043331
0.084854 0.1869 -0.0045893
0.084576 0.18536 -0.0049113
0.084704 0.18393 -0.0052484
0.085579 0.18309 -0.0057316
0.085127 0.18232 -0.0056169
0.087159 0.18092 -0.0065762
0.086778 0.18228 -0.0062787
0.087696 0.18068 -0.0066985
0.087465 0.18243 -0.0063893
0.088352 0.18052 -0.006777
0.088174 0.18232 -0.006469
0.087952 0.18785 -0.0048255
0.086881 0.18784 -0.0047748
0.087985 0.18876 -0.0043122
0.086646 0.18875 -0.0042518
0.086295 0.18135 -0.0062078
0.087027 0.17979 -0.0066019
0.085944 0.18034 -0.0061176
0.086883 0.17855 -0.0065745
0.087776 0.17761 -0.006839
0.087773 0.17899 -0.0068311
0.088631 0.17747 -0.0069208
0.088513 0.17881 -0.0069163
0.085022 0.18872 -0.0039487
0.084254 0.18724 -0.0042554
0.083968 0.18549 -0.0046373
0.083778 0.18946 -0.0035579
0.083098 0.18747 -0.004012
0.082858 0.18558 -0.0044338
0.088001 0.18939 -0.0039306
0.086428 0.18937 -0.0038617
0.087974 0.19013 -0.0035915
0.086001 0.19014 -0.0034999
0.088786 0.18653 -0.0054229
0.088996 0.18762 -0.0049276
0.089246 0.18847 -0.0044469
0.089572 0.18627 -0.0054434
0.08987 0.18727 -0.0050036
0.090204 0.18798 -0.0045999
0.10054 0.19643 -0.0037822
0.10082 0.19764 -0.0034319
0.10129 0.19904 -0.0029139
0.10153 0.19625 -0.0040113
0.10203 0.19749 -0.0035698
0.10248 0.19618 -0.0039963
0.10048 0.19521 -0.0040975
0.10042 0.19393 -0.0043648
0.099521 0.19702 -0.0032443
0.099392 0.19562 -0.0036227
0.09934 0.19434 -0.0039088
0.098678 0.19759 -0.0026714
0.098534 0.196 -0.0031267
0.098561 0.19457 -0.0035131
0.098898 0.19347 -0.0038345
0.099752 0.19313 -0.0042388
0.099377 0.1925 -0.0040855
0.10102 0.19226 -0.0047999
0.10081 0.19293 -0.004664
0.1015 0.19211 -0.004893
0.10154 0.19298 -0.0047915
0.10158 0.19391 -0.0045839
0.10198 0.1919 -0.0049352
0.10224 0.19252 -0.0048432
0.10262 0.19346 -0.0046131
0.10019 0.19982 -0.002354
0.099799 0.19843 -0.0028275
0.099447 0.20044 -0.0018119
0.098979 0.19912 -0.0022161
0.10159 0.19503 -0.0043287
0.10261 0.19488 -0.0043294
0.10034 0.19228 -0.0045215
0.10089 0.19152 -0.0047266
0.10006 0.19153 -0.0043642
0.10081 0.19065 -0.0046076
0.10158 0.19009 -0.0047768
0.10152 0.19108 -0.0048665
0.1023 0.19001 -0.0048369
0.10215 0.19101 -0.0049127
0.098133 0.19795 -0.002258
0.097987 0.19615 -0.0027827
0.098064 0.19451 -0.0032473
0.09738 0.19841 -0.0018733
0.097207 0.1962 -0.0025208
0.09728 0.19421 -0.0030571
0.099031 0.20108 -0.0013307
0.09846 0.19965 -0.0017508
0.098389 0.20231 -0.00070666
0.097736 0.20054 -0.0012332
0.10118 0.20066 -0.0021118
0.10019 0.20127 -0.0016106
0.1011 0.20168 -0.0015242
0.091914 0.21912 0.0073495
0.093177 0.21745 0.0063041
0.094263 0.21517 0.0049754
0.091649 0.21845 0.0068622
0.092736 0.21689 0.0058808
0.093664 0.21473 0.0046288
0.09156 0.2177 0.0062319
0.092499 0.21634 0.0053655
0.093275 0.2145 0.0043088
0.09992 0.20206 -0.0010776
0.099439 0.20348 -0.0003817
0.10106 0.20244 -0.00104
0.10075 0.20398 -0.00029361
0.076119 0.1898 -0.0032468
0.076461 0.1906 -0.0029086
0.07716 0.18898 -0.0035364
0.078339 0.18965 -0.0032668
0.065787 0.19944 -0.00042964
0.066528 0.20045 1.2447e-05
0.066559 0.19765 -0.00089317
0.068273 0.1975 -0.00076174
0.068758 0.20875 0.0024984
0.0695 0.21313 0.0042404
0.070287 0.21608 0.0056486
0.069836 0.21017 0.0027372
0.070154 0.21313 0.0040274
0.07076 0.21577 0.0053242
0.070315 0.21054 0.0026177
0.070602 0.21314 0.0037869
0.071125 0.21559 0.0050216
0.070593 0.18698 -0.0033431
0.070197 0.18523 -0.0036219
0.069901 0.18777 -0.0029207
0.069301 0.18529 -0.0029922
0.06926 0.18202 -0.0036161
0.069847 0.18274 -0.0041382
0.069124 0.17928 -0.0042361
0.069597 0.18023 -0.0047227
0.069268 0.17721 -0.0047946
0.069656 0.17836 -0.0052551
0.069866 0.17582 -0.0052318
0.070143 0.17714 -0.0056725
0.07693 0.18715 -0.0041919
0.077646 0.18753 -0.0039182
0.078761 0.18768 -0.003785
0.077147 0.18563 -0.0045419
0.077822 0.18584 -0.0043106
0.078878 0.18584 -0.0042122
0.075835 0.18644 -0.0045576
0.076169 0.18499 -0.004882
0.077062 0.18411 -0.0048873
0.077759 0.18409 -0.004686
0.078846 0.18389 -0.0045644
0.076703 0.18239 -0.0052372
0.077311 0.18199 -0.0050574
0.078519 0.18071 -0.0046923
0.075922 0.18306 -0.0053016
0.075758 0.18033 -0.0056617
0.076198 0.17966 -0.0055072
0.076816 0.17816 -0.0050706
0.074587 0.17848 -0.0060169
0.074872 0.17767 -0.0058873
0.07532 0.17619 -0.0054341
0.075085 0.18124 -0.0057071
0.074171 0.17964 -0.0060257
0.071958 0.18076 -0.005941
0.072746 0.17997 -0.0061074
0.0716 0.17974 -0.0060836
0.072168 0.1794 -0.0061759
0.073408 0.17747 -0.0061852
0.073568 0.1766 -0.0060645
0.073849 0.17513 -0.0056138
0.072262 0.17716 -0.0061888
0.072304 0.17629 -0.0060644
0.07238 0.17482 -0.0056223
0.073184 0.17869 -0.0061885
0.072219 0.17834 -0.0062111
0.071185 0.17733 -0.0060721
0.071092 0.17648 -0.0059377
0.070974 0.17504 -0.0055014
0.071351 0.1785 -0.0061141
0.057998 0.19857 -0.00024777
0.057318 0.19723 -0.00040919
0.057377 0.19927 0.00037814
0.056573 0.19749 5.8468e-05
0.056995 0.19566 -0.00062382
0.056907 0.19389 -0.00089561
0.056213 0.19566 -0.00023932
0.056123 0.19362 -0.00058016
0.056222 0.19143 -0.00096645
0.056989 0.192 -0.0012167
0.056594 0.18938 -0.0013413
0.05732 0.19024 -0.0015402
0.066058 0.1959 -0.0015402
0.066684 0.19572 -0.0013477
0.067606 0.19487 -0.0014018
0.066139 0.19423 -0.0018529
0.066642 0.19393 -0.0017027
0.067391 0.19302 -0.0017768
0.064966 0.19605 -0.0017729
0.065264 0.19434 -0.0020388
0.065936 0.19287 -0.0020549
0.066402 0.19236 -0.0019273
0.067096 0.19136 -0.0019817
0.065328 0.19157 -0.0021645
0.06566 0.1908 -0.0020385
0.066184 0.18906 -0.0019379
0.064814 0.19274 -0.0022284
0.063984 0.1903 -0.0022422
0.064127 0.1894 -0.0021077
0.064106 0.18789 -0.0018979
0.062327 0.18924 -0.0022737
0.062286 0.18828 -0.0021439
0.062072 0.18687 -0.0019468
0.063633 0.19166 -0.0023215
0.062285 0.19068 -0.0023622
0.060103 0.19251 -0.0022703
0.06086 0.19159 -0.0023771
0.059548 0.19167 -0.0022717
0.060104 0.1912 -0.0023511
0.060727 0.18874 -0.0022476
0.060539 0.18779 -0.0021183
0.060165 0.18648 -0.001944
0.059373 0.18886 -0.0021511
0.059075 0.18799 -0.0020124
0.058545 0.1868 -0.001847
0.060943 0.19014 -0.0023502
0.059786 0.1901 -0.002281
0.057353 0.1878 -0.001643
0.058001 0.18885 -0.0018146
0.058378 0.18959 -0.0019769
0.05893 0.19061 -0.0021509
0.084104 0.1838 -0.00501
0.084637 0.18182 -0.0054038
0.082989 0.18366 -0.0047848
0.083502 0.18057 -0.0049231
0.085184 0.17804 -0.0054333
0.085645 0.17958 -0.0059431
0.086509 0.17615 -0.0059049
0.086732 0.17765 -0.0064329
0.087691 0.17525 -0.0061733
0.087742 0.17667 -0.0067104
0.088839 0.17521 -0.0062446
0.088709 0.17657 -0.0067896
0.089448 0.18905 -0.0040865
0.089693 0.18976 -0.0037642
0.090525 0.18844 -0.0042818
0.090976 0.18908 -0.0039583
0.090644 0.18723 -0.004805
0.091083 0.18754 -0.0045012
0.091747 0.18799 -0.0041131
0.090833 0.18602 -0.0050812
0.091362 0.18602 -0.0047989
0.092524 0.18581 -0.0041567
0.090279 0.18613 -0.0052885
0.088726 0.18526 -0.0058172
0.089494 0.18493 -0.0058302
0.088757 0.18383 -0.0061613
0.089479 0.18343 -0.0061858
0.090883 0.18408 -0.0055432
0.091418 0.18378 -0.0053188
0.09236 0.18302 -0.0047899
0.090843 0.18197 -0.0060297
0.091352 0.18143 -0.0058521
0.09219 0.1805 -0.0053317
0.090246 0.18449 -0.0057176
0.090211 0.1827 -0.0061332
0.090626 0.18021 -0.0064171
0.091063 0.17954 -0.0062611
0.091761 0.17847 -0.0057147
0.090173 0.17888 -0.0066926
0.090502 0.17812 -0.0065446
0.091019 0.17694 -0.0059771
0.089425 0.18196 -0.0065091
0.09006 0.18113 -0.006482
0.089359 0.18085 -0.0067212
0.089743 0.1799 -0.0067356
0.089469 0.17793 -0.0068643
0.089672 0.1771 -0.0067247
0.089994 0.17582 -0.0061631
0.088935 0.18064 -0.0067784
0.089198 0.17914 -0.0068795
0.088815 0.18225 -0.0065099
0.098432 0.19318 -0.0036021
0.099046 0.19196 -0.0038802
0.097692 0.19257 -0.0033836
0.098471 0.19053 -0.0034951
0.099787 0.18932 -0.0038579
0.099886 0.19085 -0.0041885
0.10088 0.1884 -0.0041727
0.10077 0.18991 -0.0044605
0.10191 0.1879 -0.0043863
0.10166 0.18932 -0.0046504
0.10287 0.18795 -0.0044612
0.10247 0.18923 -0.0047213
0.10215 0.20122 -0.0017989
0.10233 0.20203 -0.0012872
0.10218 0.20377 -0.00042046
0.10313 0.20015 -0.0022208
0.10351 0.20082 -0.0017467
0.1038 0.20296 -0.00056855
0.10235 0.19966 -0.0025855
0.10377 0.19828 -0.0028628
0.10429 0.19861 -0.0025017
0.10491 0.19939 -0.0018101
0.1041 0.19628 -0.0034707
0.10463 0.19636 -0.003182
0.10538 0.19661 -0.0026539
0.10298 0.19795 -0.0032275
0.10337 0.19624 -0.0037594
0.1041 0.19463 -0.0038958
0.1046 0.19455 -0.0036503
0.10541 0.19446 -0.0032075
0.10392 0.1933 -0.0041776
0.10437 0.19307 -0.0039728
0.10517 0.19271 -0.0035922
0.10345 0.19476 -0.0041399
0.1034 0.19342 -0.0043959
0.10366 0.19221 -0.0044161
0.10405 0.19176 -0.0042474
0.10479 0.19113 -0.0039122
0.10335 0.19122 -0.0046076
0.10366 0.19061 -0.0044793
0.10429 0.18974 -0.0041799
0.10366 0.18861 -0.0043786
0.10313 0.18971 -0.0046525
0.10289 0.19045 -0.0047671
0.10264 0.19149 -0.0048321
0.10308 0.19219 -0.0046509
0.070184 0.20535 0.0012341
0.069585 0.20692 0.0017611
0.070492 0.2061 0.0012712
0.070031 0.20786 0.0018543
0.070797 0.20693 0.0012902
0.070402 0.20846 0.0017928
0.094944 0.21226 0.0034665
0.095232 0.20802 0.0016182
0.09417 0.21213 0.0032705
0.094136 0.20938 0.0020004
0.093679 0.21214 0.0030593
0.093643 0.20979 0.0019555
0.075035 0.2061 0.0015737
0.076181 0.21221 0.004391
0.077194 0.21831 0.0074293
0.075886 0.20659 0.0016819
0.076613 0.21222 0.0043123
0.077764 0.21785 0.0071388
0.076498 0.20698 0.0015971
0.077148 0.21224 0.0040755
0.078183 0.21751 0.0067403
0.075266 0.22097 0.0085989
0.076513 0.22053 0.0084888
0.075135 0.22019 0.0080246
0.076165 0.21963 0.0078477
0.076545 0.21723 0.006721
0.075043 0.21941 0.0074024
0.075892 0.21889 0.0072221
0.076139 0.21679 0.0062451
0.079208 0.22406 0.010757
0.080362 0.22565 0.011675
0.082214 0.22692 0.012311
0.079889 0.22374 0.010474
0.080966 0.22505 0.01127
0.082147 0.22567 0.01159
0.080065 0.22276 0.0096792
0.081044 0.22377 0.010291
0.082068 0.22415 0.01053
0.085151 0.22398 0.010699
0.086087 0.22154 0.0092378
0.086938 0.21784 0.0071346
0.084355 0.22366 0.010436
0.085336 0.22124 0.0089922
0.086237 0.21745 0.0068804
0.084061 0.22268 0.0096459
0.084941 0.22055 0.0083725
0.085764 0.21717 0.0065219
0.087882 0.20628 0.001433
0.087334 0.21209 0.0041875
0.088365 0.20754 0.001781
0.087716 0.21212 0.0040619
0.087578 0.21667 0.0063623
0.088728 0.20822 0.0018015
0.088173 0.21221 0.0038143
0.088038 0.21616 0.0058436
0.076276 0.19927 -0.00068124
0.075391 0.20232 0.00019375
0.077475 0.20031 -0.00063374
0.076276 0.20282 0.00016948
0.077947 0.20146 -0.00053056
0.07685 0.20363 0.00018649
0.075815 0.21227 0.0042841
0.074594 0.20733 0.0019121
0.075464 0.21244 0.0040699
0.07437 0.20809 0.001948
0.086336 0.1989 -0.0010553
0.083763 0.19731 -0.0014724
0.081273 0.19676 -0.0015644
0.085468 0.20023 -0.00080938
0.083554 0.19848 -0.0012981
0.081418 0.19782 -0.0014471
0.085168 0.20144 -0.00063644
0.083495 0.19992 -0.0010875
0.081554 0.1993 -0.0012495
0.086919 0.21211 0.0041238
0.087204 0.20677 0.0015809
0.086413 0.21217 0.003926
0.086696 0.20715 0.0015314
0.090149 0.20339 0.00016368
0.088967 0.20399 0.00042989
0.090206 0.20463 0.00039244
0.089241 0.20525 0.0006832
0.090246 0.2057 0.00054903
0.089439 0.20628 0.00082354
0.088007 0.21992 0.0081438
0.089401 0.22036 0.0082594
0.088365 0.21888 0.0074275
0.089539 0.21946 0.0076288
0.088654 0.21808 0.006755
0.089622 0.2186 0.0069509
0.092536 0.2047 0.00047681
0.091373 0.20369 0.00020095
0.092311 0.20575 0.00066303
0.091243 0.20486 0.00041258
0.092185 0.20664 0.00075617
0.091194 0.20596 0.00056672
0.072537 0.21962 0.0076588
0.073887 0.22057 0.0082762
0.072726 0.21904 0.0071902
0.073926 0.21988 0.0077476
0.072828 0.21843 0.0066459
0.073936 0.21909 0.0071056
0.073543 0.20391 0.00069799
0.072174 0.20357 0.00062396
0.073351 0.20503 0.00088767
0.07223 0.20458 0.00075244
0.07336 0.2061 0.001013
0.072418 0.20566 0.00086626
0.084028 0.22567 0.011664
0.083307 0.22506 0.011279
0.083085 0.22377 0.010301
0.08736 0.20232 -2.9505e-05
0.086682 0.20293 4.5849e-05
0.086245 0.20377 0.0001171
0.078845 0.19748 -0.0012831
0.079335 0.19856 -0.001185
0.079625 0.19997 -0.0010145
0.078233 0.22186 0.009423
0.078864 0.22155 0.009161
0.07916 0.22081 0.0085151
0.090687 0.22006 0.0079855
0.090618 0.21927 0.007424
0.090611 0.21837 0.0067006
0.09369 0.20605 0.00090592
0.093343 0.20727 0.0011704
0.093065 0.20797 0.0011975
0.071309 0.21816 0.0067825
0.071643 0.21771 0.0063825
0.07189 0.21729 0.0059395
0.075499 0.22217 0.0094075
0.073849 0.22157 0.0089634
0.072245 0.22048 0.0082575
0.075868 0.2237 0.010406
0.073869 0.22292 0.0098469
0.071914 0.22166 0.0090368
0.071016 0.20412 0.00083879
0.071251 0.20501 0.00091486
0.071542 0.20608 0.001005
0.085897 0.20733 0.0013763
0.085045 0.20378 -6.3765e-05
0.084793 0.20739 0.0012175
0.083467 0.20263 -0.00046246
0.081687 0.20206 -0.00063847
0.083381 0.20673 0.00093669
0.081792 0.20632 0.00079017
0.079881 0.2026 -0.00044404
0.078222 0.20369 -3.7305e-05
0.080167 0.20665 0.00090956
0.078661 0.20724 0.001186
0.077423 0.20717 0.0013931
0.07801 0.21222 0.0037271
0.078827 0.21728 0.0063431
0.079141 0.21211 0.003403
0.079661 0.21699 0.0059508
0.079938 0.22055 0.0081253
0.080932 0.22119 0.0084817
0.081978 0.22149 0.008663
0.080732 0.21718 0.0060195
0.0819 0.21733 0.006116
0.08303 0.2212 0.008495
0.084056 0.22046 0.0080898
0.083073 0.21722 0.0060443
0.084167 0.21698 0.0059472
0.08506 0.21712 0.0062372
0.08559 0.21223 0.0036698
0.084501 0.2122 0.0034287
0.089597 0.21723 0.005944
0.090698 0.21682 0.0055402
0.091738 0.21628 0.0051634
0.089701 0.21514 0.0045768
0.090848 0.21473 0.0041352
0.091939 0.2144 0.003894
0.092705 0.21445 0.0040691
0.093035 0.21214 0.0028048
0.093026 0.20985 0.0017566
0.092147 0.21219 0.0026546
0.092206 0.20997 0.0016496
0.092225 0.20809 0.0010573
0.091174 0.20766 0.00094486
0.09017 0.20731 0.00093971
0.091125 0.20987 0.0016654
0.090062 0.20963 0.0017646
0.089283 0.20891 0.0017766
0.088882 0.21235 0.0034656
0.088766 0.21571 0.0052489
0.08984 0.21242 0.0030853
0.072914 0.20736 0.0012085
0.072028 0.20787 0.0013271
0.071167 0.20846 0.0015398
0.073552 0.20991 0.002054
0.07263 0.21032 0.0020644
0.071651 0.21055 0.002153
0.070864 0.21052 0.002348
0.071237 0.21313 0.0035051
0.071723 0.21558 0.0047951
0.072124 0.21313 0.0033008
0.072555 0.21556 0.0046239
0.072744 0.2173 0.0057723
0.073882 0.21776 0.006092
0.075018 0.21812 0.0064595
0.073666 0.21576 0.0047647
0.074762 0.21599 0.0050943
0.075564 0.21644 0.0056934
0.07498 0.21274 0.0037784
0.074053 0.20897 0.0019835
0.074258 0.21302 0.0034897
0.083226 0.212 0.0032981
0.081851 0.21184 0.0032477
0.080458 0.21193 0.0032619
0.091006 0.21233 0.0027775
0.073219 0.21312 0.0033095
0.10316 0.228 0.018642
0.10591 0.22502 0.019867
0.1064 0.2219 0.016888
0.10859 0.22029 0.02013
0.11061 0.21511 0.020636
0.10904 0.21664 0.016801
0.11093 0.21108 0.016875
0.11208 0.20524 0.01738
0.11192 0.20947 0.021418
0.11267 0.19953 0.018332
0.11266 0.2038 0.022514
0.11146 0.20241 0.0089682
0.11085 0.20099 0.0056584
0.11013 0.19958 0.0031397
0.10994 0.20904 0.0098244
0.10967 0.20657 0.0068124
0.10909 0.20473 0.0043579
0.10834 0.21417 0.010806
0.10815 0.21179 0.0081466
0.10766 0.20984 0.0058208
0.093344 0.22926 0.013898
0.096232 0.22705 0.012917
0.099198 0.2243 0.011742
0.093459 0.22696 0.012316
0.096375 0.22465 0.011166
0.099215 0.22213 0.0098232
0.093376 0.22481 0.010909
0.096212 0.22268 0.0096193
0.099157 0.21962 0.0078258
0.1016 0.21743 0.0067752
0.10172 0.21944 0.0085047
0.1019 0.22139 0.010382
0.1034 0.21472 0.0055681
0.10383 0.21633 0.0070914
0.1042 0.21804 0.008899
0.1106 0.19507 0.0023074
0.1114 0.19589 0.0046658
0.11206 0.19632 0.0071906
0.11061 0.19113 0.001791
0.11151 0.19146 0.0041081
0.1122 0.19186 0.0065261
0.11257 0.19279 0.0088883
0.11235 0.19809 0.010324
0.11272 0.19393 0.011492
0.10928 0.19856 0.0012206
0.10965 0.19452 0.00037654
0.10956 0.19109 -0.00017066
0.10815 0.19779 -0.00032646
0.10841 0.1943 -0.0011574
0.10824 0.19142 -0.001721
0.10836 0.20336 0.0024633
0.10738 0.20209 0.00087297
0.10706 0.20828 0.0039662
0.10625 0.2067 0.0023583
0.10513 0.20477 0.00078368
0.1061 0.20064 -0.00062481
0.10669 0.19712 -0.0016626
0.10607 0.21426 0.0073598
0.10557 0.21263 0.0055465
0.10491 0.21102 0.0039866
0.099065 0.22676 0.013792
0.098911 0.22936 0.015945
0.10202 0.2234 0.012471
0.10217 0.22528 0.014618
0.10451 0.2199 0.010995
0.10479 0.2216 0.013163
0.11125 0.20698 0.013005
0.10964 0.21266 0.013268
0.10781 0.21739 0.013667
0.10535 0.22228 0.014988
0.10673 0.21819 0.012017
0.11034 0.18754 0.001474
0.11134 0.18746 0.0039068
0.1121 0.18771 0.0065941
0.10971 0.18417 0.001249
0.1108 0.18372 0.0038586
0.11164 0.18371 0.0068266
0.11217 0.18419 0.01004
0.11256 0.18836 0.0094277
0.11243 0.18526 0.01347
0.11277 0.1895 0.012474
0.10865 0.18101 0.0010486
0.1098 0.18018 0.0038127
0.11071 0.17993 0.0070252
0.10729 0.17842 0.00095786
0.10844 0.17725 0.0037578
0.10937 0.17677 0.0070709
0.10994 0.17706 0.010824
0.11129 0.18032 0.010565
0.11019 0.17822 0.014874
0.11156 0.18143 0.01434
0.10915 0.18797 -0.00056626
0.10842 0.18506 -0.00088631
0.10774 0.18881 -0.0021479
0.10698 0.18643 -0.002493
0.10583 0.17671 0.0010705
0.10693 0.17531 0.0037188
0.10774 0.17459 0.0068784
0.10454 0.17557 0.0013602
0.10563 0.17424 0.0037148
0.10617 0.17318 0.0064188
0.10736 0.18238 -0.0011564
0.10605 0.18023 -0.0012745
0.106 0.18429 -0.0027685
0.10481 0.18266 -0.0028981
0.10343 0.1817 -0.0027701
0.10464 0.17884 -0.0011194
0.102 0.18088 -0.002228
0.10348 0.17774 -0.00062839
0.10661 0.19206 -0.0028575
0.10614 0.19002 -0.0032445
0.10549 0.18818 -0.0035595
0.10683 0.19434 -0.0023683
0.11251 0.18709 0.017125
0.11283 0.19142 0.015839
0.11271 0.19628 0.014611
0.11257 0.18997 0.021093
0.11287 0.19438 0.019647
0.11019 0.18037 0.019083
0.11162 0.18339 0.018286
0.11015 0.18361 0.023372
0.11164 0.18639 0.022411
0.10369 0.18553 -0.0039116
0.10251 0.18511 -0.0038319
0.10123 0.18527 -0.0035518
0.098418 0.18314 -0.0020149
0.10023 0.18208 -0.0021748
0.099542 0.17886 -0.00061894
0.10086 0.17839 -0.00067504
0.10224 0.17757 -0.00049887
0.10051 0.1756 0.0011947
0.10167 0.17541 0.0012449
0.1029 0.17507 0.0014185
0.10468 0.18661 -0.0038011
0.10825 0.17468 0.010629
0.10838 0.17572 0.01482
0.10658 0.17307 0.0097785
0.10632 0.17366 0.013832
0.10636 0.1764 0.019141
0.10833 0.17808 0.019335
0.10626 0.18001 0.023839
0.10824 0.18153 0.023818
0.10544 0.17232 0.0071022
0.10524 0.17217 0.0096549
0.10444 0.17217 0.0063176
0.098063 0.17122 0.0010661
0.096904 0.16919 0.0011846
0.095265 0.16734 0.0014259
0.096929 0.17358 -0.0010793
0.095849 0.17143 -0.0010911
0.094293 0.16953 -0.00098649
0.095481 0.1761 -0.002763
0.094558 0.17386 -0.0029194
0.093187 0.17197 -0.0029877
0.091467 0.1704 -0.0030224
0.092448 0.16789 -0.00081204
0.093334 0.16577 0.0017398
0.089565 0.16882 -0.0026769
0.090775 0.1664 -0.00032211
0.091508 0.16449 0.00215
0.096113 0.16534 0.0044643
0.097794 0.16716 0.004179
0.098994 0.16916 0.0039545
0.096813 0.16392 0.0082391
0.098536 0.16575 0.0078911
0.09977 0.16776 0.0075315
0.1005 0.16953 0.0072273
0.099678 0.17101 0.0038341
0.098695 0.17323 0.0011031
0.101 0.17077 0.0070032
0.10013 0.17236 0.0037711
0.099113 0.17478 0.001185
0.097326 0.16357 0.012769
0.099112 0.16543 0.012231
0.10039 0.16744 0.011661
0.097586 0.16466 0.01781
0.099416 0.16658 0.017023
0.10073 0.16857 0.016212
0.10155 0.1702 0.01543
0.10117 0.16915 0.011126
0.10209 0.17131 0.014825
0.10169 0.17034 0.010714
0.094154 0.16394 0.0047445
0.094746 0.16261 0.0084642
0.092446 0.16305 0.0049579
0.092734 0.16174 0.0083244
0.093722 0.17859 -0.0042401
0.093048 0.17642 -0.0045315
0.091994 0.17469 -0.004725
0.097506 0.17584 -0.00088683
0.095968 0.17856 -0.0024214
0.097928 0.17766 -0.00066153
0.09641 0.18064 -0.0020413
0.094481 0.1834 -0.0032319
0.094063 0.1811 -0.0037729
0.097571 0.16738 0.023036
0.099383 0.16934 0.022044
0.10072 0.17131 0.021023
0.097455 0.17118 0.028046
0.099222 0.17314 0.026947
0.1006 0.17506 0.025796
0.10151 0.17641 0.024607
0.10157 0.17281 0.020014
0.10208 0.17708 0.023547
0.10212 0.17376 0.019217
0.095146 0.16224 0.013109
0.095265 0.16319 0.018396
